# .PCD v0.7 - Point Cloud Data file format
VERSION 0.7
FIELDS x y z rgb
SIZE 4 4 4 4
TYPE F F F U
COUNT 1 1 1 1
WIDTH 1103
HEIGHT 1
VIEWPOINT 0 0 0 1 0 0 0
POINTS 1103
DATA ascii
0.25761071 0.12688556 0.38099998 4278190335
0.25891143 0.12708539 0.38159999 4278190335
0.25980648 0.12708539 0.38159999 4278190335
0.26070154 0.12708539 0.38159999 4278190335
0.26159662 0.12708539 0.38159999 4278190335
-0.0097349687 0.054096553 0.16129999 4278190335
-0.0093508344 0.054063018 0.1612 4278190335
-0.0089560356 0.053962406 0.1609 4278190335
-0.0085573131 0.053828251 0.16049999 4278190335
-0.0081604673 0.053694103 0.1601 4278190335
-0.00777036 0.053593487 0.15979999 4278190335
-0.0073862877 0.053526409 0.15959999 4278190335
-0.006994368 0.053392261 0.1592 4278190335
-0.0066043232 0.053258106 0.15879999 4278190335
-0.00622008 0.053157497 0.1585 4278190335
-0.0058409343 0.05309042 0.1583 4278190335
-0.0054661813 0.053056881 0.1582 4278190335
-0.0050822352 0.052922729 0.15779999 4278190335
-0.0047091246 0.052889194 0.1577 4278190335
-0.0043364828 0.052855656 0.1576 4278190335
-0.0039592758 0.052755039 0.1573 4278190335
-0.0035880413 0.052721504 0.15719999 4278190335
0.021440022 0.027065046 0.080699995 4278190335
0.021629307 0.027065046 0.080699995 4278190335
0.021818591 0.027065046 0.080699995 4278190335
0.022007875 0.027065046 0.080699995 4278190335
0.022224667 0.027098583 0.080799997 4278190335
0.022414185 0.027098583 0.080799997 4278190335
0.022631681 0.027132122 0.080899999 4278190335
0.022849644 0.027165661 0.081 4278190335
0.023039632 0.027165661 0.081 4278190335
0.023258293 0.027199198 0.081099994 4278190335
0.023448516 0.027199198 0.081099994 4278190335
0.023697035 0.027266273 0.081299998 4278190335
0.023917111 0.027299812 0.0814 4278190335
0.024108035 0.027299812 0.0814 4278190335
0.024298962 0.027299812 0.0814 4278190335
0.024519974 0.027333351 0.081500001 4278190335
0.024711136 0.027333351 0.081500001 4278190335
0.024902297 0.027333351 0.081500001 4278190335
0.025093459 0.027333351 0.081500001 4278190335
0.045585521 0.038736217 0.1155 4278190335
0.045856431 0.038736217 0.1155 4278190335
0.046087399 0.038702682 0.11539999 4278190335
0.046358075 0.038702682 0.11539999 4278190335
0.046628751 0.038702682 0.11539999 4278190335
0.046940066 0.038736217 0.1155 4278190335
0.047210973 0.038736217 0.1155 4278190335
0.0475641 0.038803294 0.1157 4278190335
0.047876824 0.038836833 0.1158 4278190335
0.048190013 0.038870368 0.11589999 4278190335
0.048545487 0.038937446 0.1161 4278190335
0.048859853 0.038970985 0.1162 4278190335
0.049216967 0.039038058 0.1164 4278190335
0.049532507 0.039071597 0.1165 4278190335
0.049848512 0.039105136 0.1166 4278190335
0.050122 0.039105136 0.1166 4278190335
0.05043871 0.039138671 0.11669999 4278190335
0.050712433 0.039138671 0.11669999 4278190335
0.051029846 0.03917221 0.1168 4278190335
0.051347729 0.039205749 0.1169 4278190335
0.051621925 0.039205749 0.1169 4278190335
0.051896118 0.039205749 0.1169 4278190335
0.052214939 0.039239287 0.117 4278190335
0.052489366 0.039239287 0.117 4278190335
0.052763794 0.039239287 0.117 4278190335
0.053038221 0.039239287 0.117 4278190335
0.05326708 0.039205749 0.1169 4278190335
0.053587075 0.039239287 0.117 4278190335
0.053861503 0.039239287 0.117 4278190335
0.05413593 0.039239287 0.117 4278190335
0.054410357 0.039239287 0.117 4278190335
0.054684784 0.039239287 0.117 4278190335
0.054959211 0.039239287 0.117 4278190335
0.055233635 0.039239287 0.117 4278190335
0.055555504 0.039272826 0.1171 4278190335
0.055830166 0.039272826 0.1171 4278190335
0.056104828 0.039272826 0.1171 4278190335
0.056427635 0.039306361 0.11719999 4278190335
0.056702532 0.039306361 0.11719999 4278190335
0.057026044 0.0393399 0.1173 4278190335
0.057301175 0.0393399 0.1173 4278190335
0.057674475 0.039406978 0.1175 4278190335
0.057950076 0.039406978 0.1175 4278190335
0.058275227 0.039440513 0.11759999 4278190335
0.05860085 0.039474051 0.1177 4278190335
0.058926947 0.03950759 0.1178 4278190335
0.059203248 0.03950759 0.1178 4278190335
0.059479546 0.03950759 0.1178 4278190335
0.059806582 0.039541129 0.1179 4278190335
0.060083117 0.039541129 0.1179 4278190335
0.060359657 0.039541129 0.1179 4278190335
0.060636193 0.039541129 0.1179 4278190335
0.06086107 0.03950759 0.1178 4278190335
0.061137371 0.03950759 0.1178 4278190335
0.061413676 0.03950759 0.1178 4278190335
0.061689977 0.03950759 0.1178 4278190335
0.061966285 0.03950759 0.1178 4278190335
0.062242582 0.03950759 0.1178 4278190335
0.062518895 0.03950759 0.1178 4278190335
0.062848501 0.039541129 0.1179 4278190335
0.063178584 0.039574668 0.118 4278190335
0.0635629 0.039641742 0.1182 4278190335
0.06389416 0.03967528 0.1183 4278190335
0.064225875 0.039708819 0.1184 4278190335
0.064612545 0.039775893 0.1186 4278190335
0.065000154 0.039842971 0.1188 4278190335
0.065333754 0.039876506 0.11889999 4278190335
0.065723002 0.039943583 0.1191 4278190335
0.066057779 0.039977118 0.1192 4278190335
0.066337362 0.039977118 0.1192 4278190335
0.066616952 0.039977118 0.1192 4278190335
0.067063414 0.039910045 0.119 4278190335
0.067229345 0.039842971 0.1188 4278190335
0.067451164 0.039809432 0.1187 4278190335
0.067672528 0.039775893 0.1186 4278190335
0.067778818 0.03967528 0.1183 4278190335
0.20856543 0.11158043 0.33269998 4278190335
0.20991211 0.11188227 0.33359998 4278190335
0.21157877 0.1123518 0.33499998 4278190335
0.21325204 0.11282134 0.3364 4278190335
0.21524997 0.11345855 0.33829999 4278190335
0.21751228 0.11422992 0.34059998 4278190335
0.219529 0.11486714 0.3425 4278190335
0.2419211 0.12298331 0.36669999 4278190335
0.24390672 0.12355344 0.36839998 4278190335
0.24510303 0.12372114 0.3689 4278190335
0.24636835 0.12392236 0.36949998 4278190335
0.24870706 0.12466019 0.37169999 4278190335
0.25072038 0.12523034 0.3734 4278190335
0.25280902 0.12583402 0.3752 4278190335
0.25443283 0.12620293 0.37629998 4278190335
0.25612962 0.12660539 0.3775 4278190335
0.25701508 0.12660539 0.3775 4278190335
0.25790051 0.12660539 0.3775 4278190335
0.25878596 0.12660539 0.3775 4278190335
-0.010537169 0.054711297 0.162 4278190335
-0.010132113 0.054576207 0.16159999 4278190335
-0.0097410046 0.05450866 0.16139999 4278190335
-0.0093508344 0.05444112 0.1612 4278190335
-0.0089560356 0.0543398 0.1609 4278190335
-0.0085626449 0.05423848 0.16059999 4278190335
-0.0081706615 0.054137167 0.1603 4278190335
-0.0077752224 0.054002076 0.15989999 4278190335
-0.0073909159 0.053934529 0.15969999 4278190335
-0.0070031551 0.053833216 0.1594 4278190335
-0.0066168001 0.053731896 0.1591 4278190335
-0.0062318528 0.053630579 0.15879999 4278190335
-0.0058520036 0.053563036 0.1586 4278190335
-0.0054696365 0.053461719 0.1583 4278190335
-0.0050918972 0.053394172 0.15809999 4278190335
-0.0047150967 0.053326625 0.15789999 4278190335
-0.0043419856 0.053292852 0.15779999 4278190335
-0.00396431 0.053191539 0.1575 4278190335
-0.0035926064 0.053157765 0.1574 4278190335
-0.0032193237 0.053090218 0.15719999 4278190335
0.021413457 0.02722056 0.080600001 4278190335
0.021629307 0.02725433 0.080699995 4278190335
0.021818591 0.02725433 0.080699995 4278190335
0.022007875 0.02725433 0.080699995 4278190335
0.022224667 0.027288103 0.080799997 4278190335
0.022414185 0.027288103 0.080799997 4278190335
0.022603704 0.027288103 0.080799997 4278190335
0.023039632 0.027355649 0.081 4278190335
0.023258293 0.02738942 0.081099994 4278190335
0.024078419 0.027456965 0.081299998 4278190335
0.024298962 0.027490739 0.0814 4278190335
0.024489889 0.027490739 0.0814 4278190335
0.024711136 0.02752451 0.081500001 4278190335
0.024902297 0.02752451 0.081500001 4278190335
0.025093459 0.02752451 0.081500001 4278190335
0.025284618 0.02752451 0.081500001 4278190335
0.045856431 0.039007127 0.1155 4278190335
0.046087399 0.038973354 0.11539999 4278190335
0.046358075 0.038973354 0.11539999 4278190335
0.046669155 0.039007127 0.1155 4278190335
0.046940066 0.039007127 0.1155 4278190335
0.04725185 0.039040901 0.1156 4278190335
0.0475641 0.039074674 0.1157 4278190335
0.047876824 0.039108448 0.1158 4278190335
0.048190013 0.039142217 0.11589999 4278190335
0.048545487 0.039209764 0.1161 4278190335
0.048859853 0.039243534 0.1162 4278190335
0.049216967 0.039311077 0.1164 4278190335
0.049532507 0.039344851 0.1165 4278190335
0.049848512 0.039378624 0.1166 4278190335
0.050122 0.039378624 0.1166 4278190335
0.05043871 0.039412394 0.11669999 4278190335
0.050712433 0.039412394 0.11669999 4278190335
0.051029846 0.039446168 0.1168 4278190335
0.051347729 0.039479941 0.1169 4278190335
0.051621925 0.039479941 0.1169 4278190335
0.051896118 0.039479941 0.1169 4278190335
0.05217031 0.039479941 0.1169 4278190335
0.052444503 0.039479941 0.1169 4278190335
0.052718695 0.039479941 0.1169 4278190335
0.052992888 0.039479941 0.1169 4278190335
0.05326708 0.039479941 0.1169 4278190335
0.053541273 0.039479941 0.1169 4278190335
0.053769428 0.039446168 0.1168 4278190335
0.054043386 0.039446168 0.1168 4278190335
0.054270841 0.039412394 0.11669999 4278190335
0.054544564 0.039412394 0.11669999 4278190335
0.054771315 0.039378624 0.1166 4278190335
0.0550448 0.039378624 0.1166 4278190335
0.055318292 0.039378624 0.1166 4278190335
0.055591781 0.039378624 0.1166 4278190335
0.055865269 0.039378624 0.1166 4278190335
0.0561869 0.039412394 0.11669999 4278190335
0.056460626 0.039412394 0.11669999 4278190335
0.05683158 0.039479941 0.1169 4278190335
0.057154626 0.039513715 0.117 4278190335
0.057478137 0.039547488 0.1171 4278190335
0.057802115 0.039581258 0.11719999 4278190335
0.058126565 0.039615031 0.1173 4278190335
0.058451489 0.039648805 0.1174 4278190335
0.058776878 0.039682578 0.1175 4278190335
0.059102729 0.039716348 0.11759999 4278190335
0.059378561 0.039716348 0.11759999 4278190335
0.059705127 0.039750122 0.1177 4278190335
0.060032155 0.039783895 0.1178 4278190335
0.06030846 0.039783895 0.1178 4278190335
0.060584761 0.039783895 0.1178 4278190335
0.06086107 0.039783895 0.1178 4278190335
0.061137371 0.039783895 0.1178 4278190335
0.061413676 0.039783895 0.1178 4278190335
0.061689977 0.039783895 0.1178 4278190335
0.061966285 0.039783895 0.1178 4278190335
0.062242582 0.039783895 0.1178 4278190335
0.062571965 0.039817665 0.1179 4278190335
0.062848501 0.039817665 0.1179 4278190335
0.063178584 0.039851438 0.118 4278190335
0.0635629 0.039918981 0.1182 4278190335
0.063948169 0.039986528 0.1184 4278190335
0.064225875 0.039986528 0.1184 4278190335
0.064612545 0.040054072 0.1186 4278190335
0.064945437 0.040087845 0.1187 4278190335
0.065278806 0.040121619 0.1188 4278190335
0.065612629 0.040155388 0.11889999 4278190335
0.065946937 0.040189162 0.119 4278190335
0.06622605 0.040189162 0.119 4278190335
0.066449285 0.040155388 0.11889999 4278190335
0.066615924 0.040087845 0.1187 4278190335
0.066837989 0.040054072 0.1186 4278190335
0.067116164 0.040054072 0.1186 4278190335
0.067280695 0.039986528 0.1184 4278190335
0.067501351 0.039952755 0.1183 4278190335
0.067721523 0.039918981 0.1182 4278190335
0.21054134 0.11300247 0.3346 4278190335
0.21214719 0.1134415 0.33589998 4278190335
0.21382257 0.11391433 0.3373 4278190335
0.21582261 0.114556 0.33919999 4278190335
0.21783158 0.11519767 0.34109998 4278190335
0.21984947 0.11583935 0.34299999 4278190335
0.22194062 0.1165148 0.345 4278190335
0.22526786 0.11783192 0.34889999 4278190335
0.22835422 0.11901396 0.3524 4278190335
0.23184717 0.12039863 0.3565 4278190335
0.23823427 0.12239119 0.3624 4278190335
0.24013983 0.12293155 0.36399999 4278190335
0.24205293 0.12347192 0.36559999 4278190335
0.24257824 0.12330306 0.3651 4278190335
0.24376798 0.12347192 0.36559999 4278190335
0.24502698 0.12367455 0.3662 4278190335
0.24696024 0.12421491 0.3678 4278190335
0.24856409 0.1245864 0.3689 4278190335
0.24983504 0.12478904 0.36949998 4278190335
-0.011338961 0.055295315 0.1626 4278190335
-0.010930621 0.055159286 0.16219999 4278190335
-0.010543673 0.055125281 0.1621 4278190335
-0.010138383 0.054989252 0.1617 4278190335
-0.0097410046 0.054887228 0.16139999 4278190335
-0.0093508344 0.054819219 0.1612 4278190335
-0.0089616021 0.054751202 0.161 4278190335
-0.0085679768 0.054649182 0.16069999 4278190335
-0.0081757586 0.054547165 0.1604 4278190335
-0.0077800849 0.054411132 0.16 4278190335
-0.0073955436 0.054343119 0.15979999 4278190335
-0.0070075486 0.054241102 0.1595 4278190335
-0.0066251182 0.054173086 0.1593 4278190335
-0.0062357774 0.054037057 0.15889999 4278190335
-0.005855693 0.053969041 0.15869999 4278190335
-0.0054765469 0.053901032 0.1585 4278190335
-0.0050983387 0.053833015 0.1583 4278190335
-0.0047240551 0.053799007 0.1582 4278190335
-0.0043447372 0.053696986 0.15789999 4278190335
-0.0039693438 0.053628974 0.1577 4278190335
-0.0035948888 0.053560961 0.1575 4278190335
-0.0032234197 0.053526953 0.1574 4278190335
0.021198073 0.027375601 0.080499999 4278190335
0.021413457 0.027409609 0.080600001 4278190335
0.021602506 0.027409609 0.080600001 4278190335
0.021791557 0.027409609 0.080600001 4278190335
0.021980606 0.027409609 0.080600001 4278190335
0.022169655 0.027409609 0.080600001 4278190335
0.022414185 0.027477622 0.080799997 4278190335
0.022603704 0.027477622 0.080799997 4278190335
0.022821434 0.02751163 0.080899999 4278190335
0.023039632 0.027545637 0.081 4278190335
0.023229618 0.027545637 0.081 4278190335
0.023448516 0.027579643 0.081099994 4278190335
0.023667887 0.027613649 0.081199996 4278190335
0.024298962 0.027681665 0.0814 4278190335
0.024489889 0.027681665 0.0814 4278190335
0.024680816 0.027681665 0.0814 4278190335
0.024902297 0.027715672 0.081500001 4278190335
0.025093459 0.027715672 0.081500001 4278190335
0.025284618 0.027715672 0.081500001 4278190335
0.02547578 0.027715672 0.081500001 4278190335
0.046127338 0.039278038 0.1155 4278190335
0.046398249 0.039278038 0.1155 4278190335
0.046669155 0.039278038 0.1155 4278190335
0.046940066 0.039278038 0.1155 4278190335
0.047292724 0.03934605 0.1157 4278190335
0.047605213 0.039380059 0.1158 4278190335
0.047918167 0.039414063 0.11589999 4278190335
0.048231594 0.039448071 0.116 4278190335
0.048545487 0.039482079 0.1161 4278190335
0.048859853 0.039516088 0.1162 4278190335
0.049216967 0.0395841 0.1164 4278190335
0.049532507 0.039618108 0.1165 4278190335
0.04980576 0.039618108 0.1165 4278190335
0.050122 0.039652113 0.1166 4278190335
0.05043871 0.039686121 0.11669999 4278190335
0.050712433 0.039686121 0.11669999 4278190335
0.051029846 0.039720125 0.1168 4278190335
0.051303804 0.039720125 0.1168 4278190335
0.051621925 0.039754134 0.1169 4278190335
0.051896118 0.039754134 0.1169 4278190335
0.05217031 0.039754134 0.1169 4278190335
0.052444503 0.039754134 0.1169 4278190335
0.052718695 0.039754134 0.1169 4278190335
0.052992888 0.039754134 0.1169 4278190335
0.053221513 0.039720125 0.1168 4278190335
0.053449668 0.039686121 0.11669999 4278190335
0.053677358 0.039652113 0.1166 4278190335
0.053904578 0.039618108 0.1165 4278190335
0.054177832 0.039618108 0.1165 4278190335
0.054404348 0.0395841 0.1164 4278190335
0.054583423 0.039516088 0.1162 4278190335
0.054855969 0.039516088 0.1162 4278190335
0.055128518 0.039516088 0.1162 4278190335
0.055401072 0.039516088 0.1162 4278190335
0.055673622 0.039516088 0.1162 4278190335
0.055946171 0.039516088 0.1162 4278190335
0.056315482 0.0395841 0.1164 4278190335
0.056588504 0.0395841 0.1164 4278190335
0.056959223 0.039652113 0.1166 4278190335
0.057281796 0.039686121 0.11669999 4278190335
0.057604838 0.039720125 0.1168 4278190335
0.057928354 0.039754134 0.1169 4278190335
0.058302123 0.03982215 0.1171 4278190335
0.058626808 0.039856154 0.11719999 4278190335
0.058901701 0.039856154 0.11719999 4278190335
0.059227087 0.039890163 0.1173 4278190335
0.059552949 0.039924171 0.1174 4278190335
0.059879273 0.039958175 0.1175 4278190335
0.060206071 0.039992183 0.11759999 4278190335
0.060430471 0.039958175 0.1175 4278190335
0.060757738 0.039992183 0.11759999 4278190335
0.061033569 0.039992183 0.11759999 4278190335
0.061309408 0.039992183 0.11759999 4278190335
0.061637606 0.040026188 0.1177 4278190335
0.061966285 0.040060196 0.1178 4278190335
0.062242582 0.040060196 0.1178 4278190335
0.062571965 0.040094204 0.1179 4278190335
0.06290181 0.040128212 0.118 4278190335
0.063232124 0.040162217 0.11809999 4278190335
0.0635629 0.040196225 0.1182 4278190335
0.063840143 0.040196225 0.1182 4278190335
0.064171635 0.040230233 0.1183 4278190335
0.064449109 0.040230233 0.1183 4278190335
0.064726584 0.040230233 0.1183 4278190335
0.065004066 0.040230233 0.1183 4278190335
0.06528154 0.040230233 0.1183 4278190335
0.065559015 0.040230233 0.1183 4278190335
0.065836489 0.040230233 0.1183 4278190335
0.066113971 0.040230233 0.1183 4278190335
0.06633532 0.040196225 0.1182 4278190335
0.066612564 0.040196225 0.1182 4278190335
0.066833213 0.040162217 0.11809999 4278190335
0.067167044 0.040196225 0.1182 4278190335
0.067387231 0.040162217 0.11809999 4278190335
0.067606941 0.040128212 0.118 4278190335
0.21246299 0.11439941 0.3364 4278190335
0.21413952 0.11487551 0.3378 4278190335
0.21582261 0.1153516 0.33919999 4278190335
0.21751228 0.11582769 0.34059998 4278190335
0.219529 0.11647384 0.3425 4278190335
0.22194062 0.11732401 0.345 4278190335
0.2246222 0.11831021 0.3479 4278190335
0.22738221 0.11933042 0.35089999 4278190335
0.23087165 0.1207247 0.35499999 4278190335
0.23307496 0.12143885 0.35709998 4278190335
0.23528813 0.122153 0.3592 4278190335
0.23718245 0.12269711 0.3608 4278190335
0.23868844 0.12303717 0.36179999 4278190335
0.24026534 0.12341125 0.36289999 4278190335
0.24078432 0.12324122 0.3624 4278190335
0.2409009 0.12286714 0.36129999 4278190335
0.24208289 0.12303717 0.36179999 4278190335
0.2433344 0.12324122 0.3624 4278190335
0.2441844 0.12324122 0.3624 4278190335
0.2453725 0.12341125 0.36289999 4278190335
0.24622369 0.12341125 0.36289999 4278190335
0.2474153 0.12358128 0.36339998 4278190335
0.24826765 0.12358128 0.36339998 4278190335
0.24953136 0.12378533 0.36399999 4278190335
-0.011734761 0.055745177 0.1628 4278190335
-0.011338961 0.055676691 0.1626 4278190335
-0.01093736 0.055573966 0.16229999 4278190335
-0.010543673 0.055505488 0.1621 4278190335
-0.010138383 0.05536852 0.1617 4278190335
-0.0097470395 0.055300035 0.16149999 4278190335
-0.0093566347 0.055231553 0.16129999 4278190335
-0.0089616021 0.055128831 0.161 4278190335
-0.0085733086 0.055060346 0.1608 4278190335
-0.0081808558 0.054957621 0.16049999 4278190335
-0.0077995355 0.054923382 0.1604 4278190335
-0.0074048 0.054786414 0.16 4278190335
-0.0070163347 0.054683689 0.15969999 4278190335
-0.006629277 0.054580968 0.1594 4278190335
-0.0062436261 0.054478239 0.1591 4278190335
-0.0058593829 0.054375514 0.15879999 4278190335
-0.0054834569 0.054341272 0.15869999 4278190335
-0.0051080007 0.054307036 0.1586 4278190335
-0.0047300276 0.05423855 0.1584 4278190335
-0.0043502403 0.054135825 0.15809999 4278190335
-0.0039743776 0.05406734 0.15789999 4278190335
-0.003599454 0.053998861 0.1577 4278190335
-0.0032254676 0.053930376 0.1575 4278190335
0.021386888 0.027564416 0.080499999 4278190335
0.021575704 0.027564416 0.080499999 4278190335
0.021764519 0.027564416 0.080499999 4278190335
0.021980606 0.027598657 0.080600001 4278190335
0.022169655 0.027598657 0.080600001 4278190335
0.022386445 0.027632896 0.080699995 4278190335
0.022575729 0.027632896 0.080699995 4278190335
0.022793224 0.027667139 0.080799997 4278190335
0.023011187 0.02770138 0.080899999 4278190335
0.023200938 0.02770138 0.080899999 4278190335
0.023419606 0.027735623 0.081 4278190335
0.024298962 0.027872588 0.0814 4278190335
0.024489889 0.027872588 0.0814 4278190335
0.025284618 0.027906831 0.081500001 4278190335
0.02547578 0.027906831 0.081500001 4278190335
0.025698433 0.02794107 0.081599995 4278190335
0.025889827 0.02794107 0.081599995 4278190335
0.026113186 0.027975312 0.081699997 4278190335
0.026337013 0.028009554 0.081799999 4278190335
0.046127338 0.039548941 0.1155 4278190335
0.046438418 0.039583184 0.1156 4278190335
0.046709564 0.039583184 0.1156 4278190335
0.046980705 0.039583184 0.1156 4278190335
0.047292724 0.039617427 0.1157 4278190335
0.0475641 0.039617427 0.1157 4278190335
0.04795951 0.039720152 0.116 4278190335
0.048231594 0.039720152 0.116 4278190335
0.048545487 0.039754391 0.1161 4278190335
0.048901901 0.039822873 0.11629999 4278190335
0.049216967 0.039857116 0.1164 4278190335
0.049532507 0.039891358 0.1165 4278190335
0.049848512 0.039925601 0.1166 4278190335
0.050122 0.039925601 0.1166 4278190335
0.05043871 0.03995984 0.11669999 4278190335
0.050712433 0.03995984 0.11669999 4278190335
0.050986156 0.03995984 0.11669999 4278190335
0.051303804 0.03999408 0.1168 4278190335
0.051621925 0.040028322 0.1169 4278190335
0.051896118 0.040028322 0.1169 4278190335
0.05217031 0.040028322 0.1169 4278190335
0.052444503 0.040028322 0.1169 4278190335
0.052718695 0.040028322 0.1169 4278190335
0.052902222 0.03995984 0.11669999 4278190335
0.053130381 0.039925601 0.1166 4278190335
0.053358071 0.039891358 0.1165 4278190335
0.053631324 0.039891358 0.1165 4278190335
0.053858306 0.039857116 0.1164 4278190335
0.053991813 0.039754391 0.1161 4278190335
0.054264132 0.039754391 0.1161 4278190335
0.054489471 0.039720152 0.116 4278190335
0.054714341 0.039685909 0.11589999 4278190335
0.05498619 0.039685909 0.11589999 4278190335
0.055258036 0.039685909 0.11589999 4278190335
0.055529881 0.039685909 0.11589999 4278190335
0.055801731 0.039685909 0.11589999 4278190335
0.05612196 0.039720152 0.116 4278190335
0.056442656 0.039754391 0.1161 4278190335
0.056763824 0.039788634 0.1162 4278190335
0.057134543 0.039857116 0.1164 4278190335
0.057456885 0.039891358 0.1165 4278190335
0.057779692 0.039925601 0.1166 4278190335
0.058102965 0.03995984 0.11669999 4278190335
0.058476742 0.040028322 0.1169 4278190335
0.058750931 0.040028322 0.1169 4278190335
0.059075613 0.040062565 0.117 4278190335
0.059400771 0.040096808 0.1171 4278190335
0.059726387 0.040131047 0.11719999 4278190335
0.060103681 0.040199533 0.1174 4278190335
0.060327612 0.04016529 0.1173 4278190335
0.060654409 0.040199533 0.1174 4278190335
0.060929772 0.040199533 0.1174 4278190335
0.061205141 0.040199533 0.1174 4278190335
0.061532874 0.040233772 0.1175 4278190335
0.061861075 0.040268011 0.11759999 4278190335
0.062189747 0.040302254 0.1177 4278190335
0.062518895 0.040336497 0.1178 4278190335
0.062795192 0.040336497 0.1178 4278190335
0.063071497 0.040336497 0.1178 4278190335
0.063347802 0.040336497 0.1178 4278190335
0.063678116 0.04037074 0.1179 4278190335
0.063954651 0.04037074 0.1179 4278190335
0.064231195 0.04037074 0.1179 4278190335
0.064453013 0.040336497 0.1178 4278190335
0.064619422 0.040268011 0.11759999 4278190335
0.06489525 0.040268011 0.11759999 4278190335
0.065171093 0.040268011 0.11759999 4278190335
0.065391272 0.040233772 0.1175 4278190335
0.065666877 0.040233772 0.1175 4278190335
0.065942474 0.040233772 0.1175 4278190335
0.066161722 0.040199533 0.1174 4278190335
0.066493675 0.040233772 0.1175 4278190335
0.06682609 0.040268011 0.11759999 4278190335
0.067101933 0.040268011 0.11759999 4278190335
0.067377761 0.040268011 0.11759999 4278190335
0.21110766 0.11488026 0.3355 4278190335
0.21303141 0.11549661 0.3373 4278190335
0.21471006 0.11597599 0.3387 4278190335
0.21671338 0.11662658 0.34059998 4278190335
0.21847022 0.1171402 0.34209999 4278190335
0.22049043 0.11779079 0.34399998 4278190335
0.22316289 0.11878379 0.34689999 4278190335
0.22526786 0.11946862 0.34889999 4278190335
0.22770621 0.12032466 0.35139999 4278190335
0.23054649 0.12138615 0.3545 4278190335
0.23268336 0.12207098 0.3565 4278190335
0.23424008 0.12244764 0.3576 4278190335
0.23573622 0.12279005 0.35859999 4278190335
0.23730302 0.12316671 0.35969999 4278190335
0.238875 0.12354337 0.3608 4278190335
0.23865819 0.1229955 0.3592 4278190335
0.2384339 0.12244764 0.3576 4278190335
0.23893808 0.12227643 0.35709998 4278190335
0.23977569 0.12227643 0.35709998 4278190335
0.240209 0.12207098 0.3565 4278190335
0.2407071 0.12189977 0.35599998 4278190335
0.2415421 0.12189977 0.35599998 4278190335
0.24237712 0.12189977 0.35599998 4278190335
0.24321212 0.12189977 0.35599998 4278190335
0.24514399 0.12244764 0.3576 4278190335
-0.011734761 0.05612703 0.1628 4278190335
-0.011338961 0.056058075 0.1626 4278190335
-0.01093736 0.055954646 0.16229999 4278190335
-0.010543673 0.055885699 0.1621 4278190335
-0.010138383 0.055747792 0.1617 4278190335
-0.0097470395 0.055678837 0.16149999 4278190335
-0.0093566347 0.055609886 0.16129999 4278190335
-0.0089671686 0.055540938 0.1611 4278190335
-0.0085733086 0.055437505 0.1608 4278190335
-0.00819105 0.055403031 0.16069999 4278190335
-0.0077995355 0.055299606 0.1604 4278190335
-0.0074048 0.0551617 0.16 4278190335
-0.0070207282 0.055092745 0.15979999 4278190335
-0.0066334358 0.054989319 0.1595 4278190335
-0.0062475502 0.05488589 0.1592 4278190335
-0.0058630728 0.054782461 0.15889999 4278190335
-0.0054800021 0.054679036 0.1586 4278190335
-0.0051047802 0.054644559 0.1585 4278190335
-0.0047300276 0.054610085 0.1584 4278190335
-0.0043502403 0.054506652 0.15809999 4278190335
-0.0039743776 0.054437701 0.15789999 4278190335
-0.003599454 0.054368753 0.1577 4278190335
-0.0032275156 0.054334275 0.1576 4278190335
0.021360321 0.027718753 0.080399998 4278190335
0.021575704 0.02775323 0.080499999 4278190335
0.021764519 0.02775323 0.080499999 4278190335
0.021980606 0.027787708 0.080600001 4278190335
0.022169655 0.027787708 0.080600001 4278190335
0.022386445 0.027822182 0.080699995 4278190335
0.022603704 0.027856657 0.080799997 4278190335
0.022793224 0.027856657 0.080799997 4278190335
0.023011187 0.027891135 0.080899999 4278190335
0.023200938 0.027891135 0.080899999 4278190335
0.023419606 0.027925611 0.081 4278190335
0.024269111 0.028029038 0.081299998 4278190335
0.024489889 0.028063515 0.0814 4278190335
0.024680816 0.028063515 0.0814 4278190335
0.024902297 0.028097991 0.081500001 4278190335
0.025093459 0.028097991 0.081500001 4278190335
0.025284618 0.028097991 0.081500001 4278190335
0.02547578 0.028097991 0.081500001 4278190335
0.025698433 0.028132465 0.081599995 4278190335
0.025889827 0.028132465 0.081599995 4278190335
0.026113186 0.028166942 0.081699997 4278190335
0.026304815 0.028166942 0.081699997 4278190335
0.026561309 0.028235896 0.081900001 4278190335
0.046709564 0.039854329 0.1156 4278190335
0.046980705 0.039854329 0.1156 4278190335
0.047292724 0.039888803 0.1157 4278190335
0.047646318 0.039957754 0.11589999 4278190335
0.04795951 0.039992232 0.116 4278190335
0.048273172 0.040026709 0.1161 4278190335
0.048545487 0.040026709 0.1161 4278190335
0.048859853 0.040061183 0.1162 4278190335
0.049216967 0.040130135 0.1164 4278190335
0.049532507 0.040164612 0.1165 4278190335
0.04980576 0.040164612 0.1165 4278190335
0.050079014 0.040164612 0.1165 4278190335
0.050395492 0.04019909 0.1166 4278190335
0.050668981 0.04019909 0.1166 4278190335
0.050942469 0.04019909 0.1166 4278190335
0.051259879 0.040233564 0.11669999 4278190335
0.051533602 0.040233564 0.11669999 4278190335
0.051807329 0.040233564 0.11669999 4278190335
0.052125681 0.040268041 0.1168 4278190335
0.052309915 0.04019909 0.1166 4278190335
0.052628499 0.040233564 0.11669999 4278190335
0.052856892 0.04019909 0.1166 4278190335
0.053084813 0.040164612 0.1165 4278190335
0.053312268 0.040130135 0.1164 4278190335
0.053852301 0.03992328 0.1158 4278190335
0.054077175 0.039888803 0.1157 4278190335
0.054301579 0.039854329 0.1156 4278190335
0.054572716 0.039854329 0.1156 4278190335
0.054796416 0.039819852 0.1155 4278190335
0.055067327 0.039819852 0.1155 4278190335
0.055386148 0.039854329 0.1156 4278190335
0.055657294 0.039854329 0.1156 4278190335
0.055976819 0.039888803 0.1157 4278190335
0.056296811 0.03992328 0.1158 4278190335
0.056617271 0.039957754 0.11589999 4278190335
0.056938205 0.039992232 0.116 4278190335
0.057308927 0.040061183 0.1162 4278190335
0.057631027 0.040095657 0.11629999 4278190335
0.057953604 0.040130135 0.1164 4278190335
0.058326673 0.04019909 0.1166 4278190335
0.058600157 0.04019909 0.1166 4278190335
0.058924135 0.040233564 0.11669999 4278190335
0.059248589 0.040268041 0.1168 4278190335
0.059624467 0.040336993 0.117 4278190335
0.059950095 0.04037147 0.1171 4278190335
0.060224753 0.04037147 0.1171 4278190335
0.060499419 0.04037147 0.1171 4278190335
0.060774077 0.04037147 0.1171 4278190335
0.06110087 0.040405944 0.11719999 4278190335
0.061428133 0.040440422 0.1173 4278190335
0.061755873 0.040474895 0.1174 4278190335
0.062084071 0.040509373 0.1175 4278190335
0.062359676 0.040509373 0.1175 4278190335
0.062635273 0.040509373 0.1175 4278190335
0.062910877 0.040509373 0.1175 4278190335
0.063186474 0.040509373 0.1175 4278190335
0.063462079 0.040509373 0.1175 4278190335
0.063737676 0.040509373 0.1175 4278190335
0.063958794 0.040474895 0.1174 4278190335
0.064344682 0.04037147 0.1171 4278190335
0.064564161 0.040336993 0.117 4278190335
0.064783171 0.040302515 0.1169 4278190335
0.06505736 0.040302515 0.1169 4278190335
0.065493502 0.040233564 0.11669999 4278190335
0.065879941 0.040302515 0.1169 4278190335
0.06615413 0.040302515 0.1169 4278190335
0.066485144 0.040336993 0.117 4278190335
0.066759579 0.040336993 0.117 4278190335
0.067091294 0.04037147 0.1171 4278190335
0.21255489 0.11646014 0.3378 4278190335
0.21486297 0.11728755 0.34019998 4278190335
0.21686541 0.11794261 0.34209999 4278190335
0.2188767 0.11859765 0.34399998 4278190335
0.22057764 0.11908032 0.34540001 4278190335
0.22234921 0.11959746 0.34689999 4278190335
0.22477116 0.12045936 0.34939998 4278190335
0.22655916 0.1209765 0.35089999 4278190335
0.22867821 0.12166602 0.3529 4278190335
0.23087165 0.12239002 0.35499999 4278190335
0.23268336 0.12290716 0.3565 4278190335
0.23424008 0.1232864 0.3576 4278190335
0.23540753 0.12345878 0.3581 4278190335
0.23657732 0.12363116 0.35859999 4278190335
0.23781569 0.12383801 0.3592 4278190335
0.2372629 0.12311401 0.35709998 4278190335
0.23703368 0.12256239 0.35549998 4278190335
0.23744643 0.12149365 0.3524 4278190335
0.23793492 0.12132126 0.35189998 4278190335
0.23842105 0.12114888 0.35139999 4278190335
0.2395857 0.12132126 0.35189998 4278190335
0.24041109 0.12132126 0.35189998 4278190335
0.24192202 0.12166602 0.3529 4278190335
-0.011734761 0.056508884 0.1628 4278190335
-0.011345935 0.056474172 0.1627 4278190335
-0.010944099 0.056370039 0.16239999 4278190335
-0.010543673 0.056265909 0.1621 4278190335
-0.0097470395 0.056057643 0.16149999 4278190335
-0.0093566347 0.055988219 0.16129999 4278190335
-0.0089671686 0.055918802 0.1611 4278190335
-0.0085733086 0.055814669 0.1608 4278190335
-0.0081859529 0.055745248 0.16059999 4278190335
-0.0077995355 0.055675831 0.1604 4278190335
-0.0074094278 0.055571694 0.1601 4278190335
-0.0070207282 0.055467561 0.15979999 4278190335
-0.0066334358 0.055363432 0.1595 4278190335
-0.0062514748 0.055294011 0.1593 4278190335
-0.0058704526 0.05522459 0.1591 4278190335
-0.0054869126 0.055120453 0.15879999 4278190335
-0.0051080007 0.055051036 0.1586 4278190335
-0.0047300276 0.054981615 0.1584 4278190335
-0.0043502403 0.054877482 0.15809999 4278190335
-0.0039743776 0.054808058 0.15789999 4278190335
-0.003599454 0.054738641 0.1577 4278190335
0.021548901 0.027907334 0.080399998 4278190335
0.021737482 0.027907334 0.080399998 4278190335
0.021953335 0.027942045 0.080499999 4278190335
0.02214215 0.027942045 0.080499999 4278190335
0.022358706 0.027976757 0.080600001 4278190335
0.022575729 0.028011465 0.080699995 4278190335
0.022765014 0.028011465 0.080699995 4278190335
0.022982743 0.028046176 0.080799997 4278190335
0.023200938 0.028080888 0.080899999 4278190335
0.023419606 0.028115598 0.081 4278190335
0.023638738 0.028150307 0.081099994 4278190335
0.023858344 0.028185019 0.081199996 4278190335
0.024489889 0.028254442 0.0814 4278190335
0.024680816 0.028254442 0.0814 4278190335
0.024902297 0.028289152 0.081500001 4278190335
0.025093459 0.028289152 0.081500001 4278190335
0.025284618 0.028289152 0.081500001 4278190335
0.02547578 0.028289152 0.081500001 4278190335
0.025698433 0.028323861 0.081599995 4278190335
0.025889827 0.028323861 0.081599995 4278190335
0.026113186 0.028358573 0.081699997 4278190335
0.026304815 0.028358573 0.081699997 4278190335
0.026561309 0.028427994 0.081900001 4278190335
0.048859853 0.040333737 0.1162 4278190335
0.049216967 0.040403154 0.1164 4278190335
0.049489986 0.040403154 0.1164 4278190335
0.04980576 0.040437866 0.1165 4278190335
0.050079014 0.040437866 0.1165 4278190335
0.051533602 0.040507287 0.11669999 4278190335
0.052081052 0.040507287 0.11669999 4278190335
0.052265052 0.040437866 0.1165 4278190335
0.052538306 0.040437866 0.1165 4278190335
0.052948117 0.040333737 0.1162 4278190335
0.053174865 0.040299024 0.1161 4278190335
0.053534418 0.040160183 0.1157 4278190335
0.053759292 0.040125471 0.1156 4278190335
0.053983696 0.040090758 0.1155 4278190335
0.05420763 0.04005605 0.11539999 4278190335
0.054431096 0.040021341 0.1153 4278190335
0.054701533 0.040021341 0.1153 4278190335
0.054971974 0.040021341 0.1153 4278190335
0.055242416 0.040021341 0.1153 4278190335
0.055560999 0.04005605 0.11539999 4278190335
0.055880055 0.040090758 0.1155 4278190335
0.056150962 0.040090758 0.1155 4278190335
0.056470722 0.040125471 0.1156 4278190335
0.056840036 0.040194895 0.1158 4278190335
0.057210285 0.040264312 0.116 4278190335
0.057531923 0.040299024 0.1161 4278190335
0.057804238 0.040299024 0.1161 4278190335
0.058176603 0.040368445 0.11629999 4278190335
0.058499642 0.040403154 0.1164 4278190335
0.058823153 0.040437866 0.1165 4278190335
0.059147138 0.040472578 0.1166 4278190335
0.059471581 0.040507287 0.11669999 4278190335
0.059796505 0.040541999 0.1168 4278190335
0.060070459 0.040541999 0.1168 4278190335
0.060396086 0.040576708 0.1169 4278190335
0.060670275 0.040576708 0.1169 4278190335
0.060996607 0.04061142 0.117 4278190335
0.061323401 0.040646132 0.1171 4278190335
0.061598066 0.040646132 0.1171 4278190335
0.061925557 0.040680841 0.11719999 4278190335
0.062253531 0.040715553 0.1173 4278190335
0.06247535 0.040680841 0.11719999 4278190335
0.06275025 0.040680841 0.11719999 4278190335
0.062971368 0.040646132 0.1171 4278190335
0.063466445 0.04061142 0.117 4278190335
0.063631922 0.040541999 0.1168 4278190335
0.064233057 0.040403154 0.1164 4278190335
0.064450659 0.040368445 0.11629999 4278190335
0.064612143 0.040299024 0.1161 4278190335
0.064884461 0.040299024 0.1161 4278190335
0.065156773 0.040299024 0.1161 4278190335
0.065429091 0.040299024 0.1161 4278190335
0.06570141 0.040299024 0.1161 4278190335
0.066087365 0.040368445 0.11629999 4278190335
0.066360153 0.040368445 0.11629999 4278190335
0.066690236 0.040403154 0.1164 4278190335
0.2166314 0.11905741 0.34299999 4278190335
0.21870378 0.11975162 0.345 4278190335
0.22185487 0.12058467 0.34739998 4278190335
0.22363114 0.12110534 0.34889999 4278190335
0.22573613 0.12179955 0.35089999 4278190335
0.22752763 0.12232021 0.3524 4278190335
0.229715 0.12304913 0.3545 4278190335
0.23152199 0.12356979 0.35599998 4278190335
0.23268336 0.12374335 0.3565 4278190335
0.23424008 0.12412516 0.3576 4278190335
0.23540753 0.12429871 0.3581 4278190335
0.23657732 0.12447227 0.35859999 4278190335
0.23741844 0.12447227 0.35859999 4278190335
0.23686427 0.12374335 0.3565 4278190335
0.23603356 0.12287558 0.354 4278190335
0.23579329 0.12232021 0.3524 4278190335
0.23542503 0.12127889 0.34939998 4278190335
0.23523036 0.12075824 0.3479 4278190335
0.23570709 0.12058467 0.34739998 4278190335
0.23652194 0.12058467 0.34739998 4278190335
0.23767838 0.12075824 0.3479 4278190335
0.23952268 0.12127889 0.34939998 4278190335
-0.01174197 0.05692568 0.1629 4278190335
-0.011338961 0.056820843 0.1626 4278190335
-0.010950838 0.056785896 0.16249999 4278190335
-0.010556682 0.056716006 0.16229999 4278190335
-0.0097530754 0.056471393 0.16159999 4278190335
-0.009362435 0.056401499 0.16139999 4278190335
-0.0089671686 0.056296669 0.1611 4278190335
-0.0085786404 0.056226775 0.1609 4278190335
-0.0081859529 0.056121938 0.16059999 4278190335
-0.0077995355 0.056052051 0.1604 4278190335
-0.0074094278 0.055947214 0.1601 4278190335
-0.0070251217 0.055877324 0.15989999 4278190335
-0.0066375942 0.055772487 0.15959999 4278190335
-0.0062593236 0.055737544 0.1595 4278190335
-0.0058704526 0.055597764 0.1591 4278190335
-0.0054903678 0.05552787 0.15889999 4278190335
-0.0051144417 0.055492926 0.15879999 4278190335
-0.0047359997 0.05542304 0.1586 4278190335
-0.004355744 0.055318203 0.1583 4278190335
-0.003976895 0.055213366 0.15799999 4278190335
0.021737482 0.028095916 0.080399998 4278190335
0.021953335 0.028130861 0.080499999 4278190335
0.02214215 0.028130861 0.080499999 4278190335
0.022358706 0.028165806 0.080600001 4278190335
0.022575729 0.028200749 0.080699995 4278190335
0.022793224 0.028235696 0.080799997 4278190335
0.022982743 0.028235696 0.080799997 4278190335
0.023172259 0.028235696 0.080799997 4278190335
0.023390692 0.028270641 0.080899999 4278190335
0.023638738 0.02834053 0.081099994 4278190335
0.023858344 0.028375477 0.081199996 4278190335
0.024048802 0.028375477 0.081199996 4278190335
0.024871742 0.028445367 0.0814 4278190335
0.025093459 0.028480314 0.081500001 4278190335
0.025284618 0.028480314 0.081500001 4278190335
0.02547578 0.028480314 0.081500001 4278190335
0.025698433 0.028515257 0.081599995 4278190335
0.025889827 0.028515257 0.081599995 4278190335
0.026113186 0.028550202 0.081699997 4278190335
0.026304815 0.028550202 0.081699997 4278190335
0.026561309 0.028620094 0.081900001 4278190335
0.049763009 0.040676177 0.1164 4278190335
0.052265052 0.04071112 0.1165 4278190335
0.053083263 0.040501449 0.11589999 4278190335
0.053441878 0.040361669 0.1155 4278190335
0.053666279 0.040326722 0.11539999 4278190335
0.053890217 0.040291779 0.1153 4278190335
0.05406671 0.040221889 0.1151 4278190335
0.054336675 0.040221889 0.1151 4278190335
0.054606646 0.040221889 0.1151 4278190335
0.054876618 0.040221889 0.1151 4278190335
0.055194501 0.040256836 0.1152 4278190335
0.055464707 0.040256836 0.1152 4278190335
0.055783294 0.040291779 0.1153 4278190335
0.056102347 0.040326722 0.11539999 4278190335
0.056421872 0.040361669 0.1155 4278190335
0.056741867 0.040396616 0.1156 4278190335
0.057062328 0.040431559 0.1157 4278190335
0.057383262 0.040466506 0.1158 4278190335
0.057704661 0.040501449 0.11589999 4278190335
0.058026534 0.040536396 0.116 4278190335
0.058348872 0.040571339 0.1161 4278190335
0.058671676 0.040606286 0.1162 4278190335
0.058994956 0.04064123 0.11629999 4278190335
0.059318699 0.040676177 0.1164 4278190335
0.059642918 0.04071112 0.1165 4278190335
0.0599676 0.040746067 0.1166 4278190335
0.060241092 0.040746067 0.1166 4278190335
0.060566474 0.04078101 0.11669999 4278190335
0.060892336 0.040815957 0.1168 4278190335
0.06116629 0.040815957 0.1168 4278190335
0.061492857 0.0408509 0.1169 4278190335
0.061767045 0.0408509 0.1169 4278190335
0.062041242 0.0408509 0.1169 4278190335
0.062208816 0.04078101 0.11669999 4278190335
0.062482543 0.04078101 0.11669999 4278190335
0.062702492 0.040746067 0.1166 4278190335
0.062921971 0.04071112 0.1165 4278190335
0.063140981 0.040676177 0.1164 4278190335
0.063305043 0.040606286 0.1162 4278190335
0.063468166 0.040536396 0.116 4278190335
0.063685298 0.040501449 0.11589999 4278190335
0.063846774 0.040431559 0.1157 4278190335
0.064062744 0.040396616 0.1156 4278190335
0.064333878 0.040396616 0.1156 4278190335
0.064605027 0.040396616 0.1156 4278190335
0.065147318 0.040396616 0.1156 4278190335
0.065475047 0.040431559 0.1157 4278190335
0.065746419 0.040431559 0.1157 4278190335
0.06613192 0.040501449 0.11589999 4278190335
0.066461056 0.040536396 0.116 4278190335
0.21877877 0.12105006 0.34639999 4278190335
0.22054216 0.12157425 0.3479 4278190335
0.22377072 0.12244787 0.3504 4278190335
0.22523354 0.12279732 0.35139999 4278190335
0.22702274 0.1233215 0.3529 4278190335
0.23068699 0.1244048 0.35599998 4278190335
0.23256256 0.12496392 0.3576 4278190335
0.23372766 0.12513866 0.3581 4278190335
0.23489511 0.12531337 0.35859999 4278190335
0.23573622 0.12531337 0.35859999 4278190335
0.23657732 0.12531337 0.35859999 4278190335
0.23508812 0.12192369 0.34889999 4278190335
0.23489226 0.12139951 0.34739998 4278190335
0.23570709 0.12139951 0.34739998 4278190335
0.23618153 0.12122478 0.34689999 4278190335
0.23733677 0.12139951 0.34739998 4278190335
0.23917991 0.12192369 0.34889999 4278190335
-0.011749177 0.057342947 0.163 4278190335
-0.011352909 0.057272587 0.1628 4278190335
-0.010964317 0.057237409 0.1627 4278190335
-0.010563186 0.057131868 0.16239999 4278190335
-0.0093682362 0.056815248 0.16149999 4278190335
-0.0089727351 0.056709714 0.1612 4278190335
-0.0085839722 0.056639351 0.161 4278190335
-0.0082012443 0.056604173 0.1609 4278190335
-0.0078092599 0.056498632 0.16059999 4278190335
-0.0074279397 0.05646345 0.16049999 4278190335
-0.0070339087 0.056322735 0.1601 4278190335
-0.0066500711 0.056252375 0.15989999 4278190335
-0.0062671718 0.056182012 0.15969999 4278190335
-0.0058852118 0.05611166 0.1595 4278190335
-0.0051273247 0.056006119 0.1592 4278190335
-0.0047449577 0.055900577 0.15889999 4278190335
0.022765014 0.028390035 0.080699995 4278190335
0.022982743 0.028425215 0.080799997 4278190335
0.023172259 0.028425215 0.080799997 4278190335
0.023390692 0.028460395 0.080899999 4278190335
0.023638738 0.028530752 0.081099994 4278190335
0.023828961 0.028530752 0.081099994 4278190335
0.024048802 0.028565934 0.081199996 4278190335
0.024239259 0.028565934 0.081199996 4278190335
0.024459802 0.028601114 0.081299998 4278190335
0.024680816 0.028636293 0.0814 4278190335
0.024871742 0.028636293 0.0814 4278190335
0.025093459 0.028671473 0.081500001 4278190335
0.025284618 0.028671473 0.081500001 4278190335
0.02547578 0.028671473 0.081500001 4278190335
0.025666941 0.028671473 0.081500001 4278190335
0.025889827 0.028706651 0.081599995 4278190335
0.026113186 0.028741833 0.081699997 4278190335
0.026304815 0.028741833 0.081699997 4278190335
0.026561309 0.028812192 0.081900001 4278190335
0.05294586 0.040667757 0.1156 4278190335
0.053124931 0.040597398 0.11539999 4278190335
0.053395607 0.040597398 0.11539999 4278190335
0.05361978 0.04056222 0.1153 4278190335
0.053796738 0.04049186 0.1151 4278190335
0.054019734 0.040456679 0.11499999 4278190335
0.054289468 0.040456679 0.11499999 4278190335
0.054559205 0.040456679 0.11499999 4278190335
0.054828938 0.040456679 0.11499999 4278190335
0.05514659 0.04049186 0.1151 4278190335
0.055416558 0.04049186 0.1151 4278190335
0.05573491 0.040527038 0.1152 4278190335
0.056053735 0.04056222 0.1153 4278190335
0.056324173 0.04056222 0.1153 4278190335
0.056643695 0.040597398 0.11539999 4278190335
0.05696369 0.040632579 0.1155 4278190335
0.057284154 0.040667757 0.1156 4278190335
0.057605084 0.040702939 0.1157 4278190335
0.057926491 0.040738117 0.1158 4278190335
0.058248356 0.040773295 0.11589999 4278190335
0.058520198 0.040773295 0.11589999 4278190335
0.058842778 0.040808477 0.116 4278190335
0.059165817 0.040843658 0.1161 4278190335
0.059489332 0.040878836 0.1162 4278190335
0.059813306 0.040914014 0.11629999 4278190335
0.060137764 0.040949196 0.1164 4278190335
0.060410779 0.040949196 0.1164 4278190335
0.060735937 0.040984377 0.1165 4278190335
0.061009187 0.040984377 0.1165 4278190335
0.061282445 0.040984377 0.1165 4278190335
0.061555699 0.040984377 0.1165 4278190335
0.061828956 0.040984377 0.1165 4278190335
0.061995592 0.040914014 0.11629999 4278190335
0.06221484 0.040878836 0.1162 4278190335
0.062433612 0.040843658 0.1161 4278190335
0.062651917 0.040808477 0.116 4278190335
0.06286975 0.040773295 0.11589999 4278190335
0.063032649 0.040702939 0.1157 4278190335
0.063194595 0.040632579 0.1155 4278190335
0.06335561 0.04056222 0.1153 4278190335
0.063626043 0.04056222 0.1153 4278190335
0.06378565 0.04049186 0.1151 4278190335
0.064055622 0.04049186 0.1151 4278190335
0.064325593 0.04049186 0.1151 4278190335
0.064651683 0.040527038 0.1152 4278190335
0.064978249 0.04056222 0.1153 4278190335
0.065248683 0.04056222 0.1153 4278190335
0.065575942 0.040597398 0.11539999 4278190335
0.066560559 0.040702939 0.1157 4278190335
0.066831931 0.040702939 0.1157 4278190335
0.22472863 0.12379744 0.35189998 4278190335
0.22619499 0.12414924 0.3529 4278190335
0.22805202 0.12471212 0.3545 4278190335
0.22952914 0.12506391 0.35549998 4278190335
0.231011 0.12541571 0.3565 4278190335
0.23288772 0.12597859 0.3581 4278190335
0.234054 0.12615448 0.35859999 4278190335
0.23489511 0.12615448 0.35859999 4278190335
0.23573622 0.12615448 0.35859999 4278190335
0.23697317 0.12636556 0.3592 4278190335
0.23441434 0.12239026 0.3479 4278190335
0.23421614 0.12186255 0.34639999 4278190335
0.23435013 0.12151077 0.34540001 4278190335
0.23488796 0.12137004 0.345 4278190335
0.23569715 0.12137004 0.345 4278190335
0.2374661 0.12186255 0.34639999 4278190335
0.024239259 0.028756391 0.081199996 4278190335
0.024871742 0.02882722 0.0814 4278190335
0.025093459 0.028862635 0.081500001 4278190335
0.025284618 0.028862635 0.081500001 4278190335
0.02547578 0.028862635 0.081500001 4278190335
0.025666941 0.028862635 0.081500001 4278190335
0.025889827 0.028898047 0.081599995 4278190335
0.026113186 0.028933462 0.081699997 4278190335
0.026337013 0.028968876 0.081799999 4278190335
0.026561309 0.029004293 0.081900001 4278190335
0.026753409 0.029004293 0.081900001 4278190335
0.052900057 0.040903486 0.1155 4278190335
0.053078897 0.040832661 0.1153 4278190335
0.053349338 0.040832661 0.1153 4278190335
0.053526767 0.040761828 0.1151 4278190335
0.053796738 0.040761828 0.1151 4278190335
0.05406671 0.040761828 0.1151 4278190335
0.054289468 0.040726416 0.11499999 4278190335
0.054559205 0.040726416 0.11499999 4278190335
0.054828938 0.040726416 0.11499999 4278190335
0.05514659 0.040761828 0.1151 4278190335
0.055416558 0.040761828 0.1151 4278190335
0.05568653 0.040761828 0.1151 4278190335
0.056005117 0.040797245 0.1152 4278190335
0.056324173 0.040832661 0.1153 4278190335
0.056594614 0.040832661 0.1153 4278190335
0.056914371 0.04086807 0.11539999 4278190335
0.0572346 0.040903486 0.1155 4278190335
0.057505507 0.040903486 0.1155 4278190335
0.057826445 0.040938903 0.1156 4278190335
0.058097582 0.040938903 0.1156 4278190335
0.058469709 0.041009732 0.1158 4278190335
0.058741324 0.041009732 0.1158 4278190335
0.059063893 0.041045144 0.11589999 4278190335
0.059386939 0.041080557 0.116 4278190335
0.059659019 0.041080557 0.116 4278190335
0.059982769 0.041115973 0.1161 4278190335
0.06025508 0.041115973 0.1161 4278190335
0.060527403 0.041115973 0.1161 4278190335
0.060799714 0.041115973 0.1161 4278190335
0.061072033 0.041115973 0.1161 4278190335
0.061344348 0.041115973 0.1161 4278190335
0.061563592 0.041080557 0.116 4278190335
0.061782364 0.041045144 0.11589999 4278190335
0.061947133 0.040974315 0.1157 4278190335
0.062164731 0.040938903 0.1156 4278190335
0.062381867 0.040903486 0.1155 4278190335
0.062544286 0.040832661 0.1153 4278190335
0.06270577 0.040761828 0.1151 4278190335
0.062921025 0.040726416 0.11499999 4278190335
0.063135818 0.040691003 0.1149 4278190335
0.063350134 0.040655587 0.1148 4278190335
0.06356398 0.040620174 0.1147 4278190335
0.063833013 0.040620174 0.1147 4278190335
0.064157933 0.040655587 0.1148 4278190335
0.064427197 0.040655587 0.1148 4278190335
0.064752825 0.040691003 0.1149 4278190335
0.065022327 0.040691003 0.1149 4278190335
0.065348648 0.040726416 0.11499999 4278190335
0.065675445 0.040761828 0.1151 4278190335
0.066059999 0.040832661 0.1153 4278190335
0.22288403 0.12497698 0.3529 4278190335
0.22371179 0.12497698 0.3529 4278190335
0.22485764 0.12515405 0.35339999 4278190335
0.22606973 0.12536654 0.354 4278190335
0.22722052 0.12554361 0.3545 4278190335
0.22837368 0.12572068 0.35499999 4278190335
0.22985196 0.12607481 0.35599998 4278190335
0.23139979 0.12646437 0.35709998 4278190335
0.23256256 0.12664145 0.3576 4278190335
0.23372766 0.12681852 0.3581 4278190335
0.23489511 0.12699559 0.35859999 4278190335
0.23573622 0.12699559 0.35859999 4278190335
0.23730302 0.12738515 0.35969999 4278190335
0.024871742 0.029018147 0.0814 4278190335
0.025093459 0.029053796 0.081500001 4278190335
0.025284618 0.029053796 0.081500001 4278190335
0.02547578 0.029053796 0.081500001 4278190335
0.025666941 0.029053796 0.081500001 4278190335
0.025889827 0.029089443 0.081599995 4278190335
0.026113186 0.029125093 0.081699997 4278190335
0.026337013 0.029160742 0.081799999 4278190335
0.053078897 0.041103099 0.1153 4278190335
0.053303067 0.041067451 0.1152 4278190335
