# .PCD v0.7 - Point Cloud Data file format
VERSION 0.7
FIELDS x y z rgb
SIZE 4 4 4 4
TYPE F F F U
COUNT 1 1 1 1
WIDTH 1029
HEIGHT 1
VIEWPOINT 0 0 0 1 0 0 0
POINTS 1029
DATA ascii
-0.052437838 -0.0017843599 0.1265 4278190335
-0.05209991 -0.0017829493 0.12639999 4278190335
-0.051762447 -0.0017815387 0.12629999 4278190335
-0.051425457 -0.0017801281 0.12619999 4278190335
-0.051048428 -0.0017773072 0.126 4278190335
-0.05067233 -0.001774486 0.1258 4278190335
-0.050297167 -0.0017716648 0.1256 4278190335
-0.049922951 -0.0017688437 0.12539999 4278190335
-0.049549673 -0.0017660228 0.1252 4278190335
-0.049216669 -0.0017646122 0.1251 4278190335
-0.048923243 -0.0017646122 0.1251 4278190335
-0.04855207 -0.0017617909 0.1249 4278190335
-0.048259113 -0.0017617909 0.1249 4278190335
-0.047966156 -0.0017617909 0.1249 4278190335
-0.047749538 -0.0017646122 0.1251 4278190335
-0.047607847 -0.0017702542 0.12549999 4278190335
-0.047539689 -0.0017787177 0.1261 4278190335
-0.047468707 -0.0017871811 0.1267 4278190335
-0.047394909 -0.0017956444 0.12729999 4278190335
-0.047355298 -0.0018055183 0.12799999 4278190335
-0.047275644 -0.0018139818 0.1286 4278190335
-0.04719317 -0.0018224451 0.1292 4278190335
-0.047071587 -0.0018294977 0.12969999 4278190335
-0.046875548 -0.0018337296 0.13 4278190335
-0.046678104 -0.0018379613 0.1303 4278190335
-0.046408068 -0.0018393719 0.1304 4278190335
-0.046172917 -0.0018421928 0.13059999 4278190335
-0.045901712 -0.0018436034 0.13069999 4278190335
-0.045630034 -0.001845014 0.13079999 4278190335
-0.04535789 -0.0018464247 0.1309 4278190335
-0.045085277 -0.0018478351 0.131 4278190335
-0.044778012 -0.0018478351 0.131 4278190335
-0.04447075 -0.0018478351 0.131 4278190335
-0.044163484 -0.0018478351 0.131 4278190335
-0.043856222 -0.0018478351 0.131 4278190335
-0.043582201 -0.0018492457 0.1311 4278190335
-0.043241695 -0.0018478351 0.131 4278190335
-0.042901654 -0.0018464247 0.1309 4278190335
-0.042529542 -0.0018436034 0.13069999 4278190335
-0.042190675 -0.0018421928 0.13059999 4278190335
-0.041820213 -0.0018393719 0.1304 4278190335
-0.041482519 -0.0018379613 0.1303 4278190335
-0.041145291 -0.0018365508 0.1302 4278190335
-0.040777169 -0.0018337296 0.13 4278190335
-0.040347721 -0.0018280874 0.1296 4278190335
-0.039951045 -0.0018238557 0.1293 4278190335
-0.039555777 -0.0018196239 0.12899999 4278190335
-0.039161921 -0.0018153924 0.1287 4278190335
-0.038799662 -0.0018125712 0.1285 4278190335
-0.038438339 -0.00180975 0.1283 4278190335
-0.03804823 -0.0018055183 0.12799999 4278190335
-0.037689023 -0.0018026973 0.1278 4278190335
-0.037360009 -0.0018012867 0.1277 4278190335
-0.037060484 -0.0018012867 0.1277 4278190335
-0.03676096 -0.0018012867 0.1277 4278190335
-0.03648999 -0.0018026973 0.1278 4278190335
-0.036246862 -0.0018055183 0.12799999 4278190335
-0.036030885 -0.00180975 0.1283 4278190335
-0.03584135 -0.0018153924 0.1287 4278190335
-0.035705164 -0.0018238557 0.1293 4278190335
-0.035538789 -0.0018309084 0.12979999 4278190335
-0.035342921 -0.0018365508 0.1302 4278190335
-0.035145171 -0.0018421928 0.13059999 4278190335
-0.034945551 -0.0018478351 0.131 4278190335
-0.034638286 -0.0018478351 0.131 4278190335
-0.034383435 -0.0018506564 0.1312 4278190335
-0.034075703 -0.0018506564 0.1312 4278190335
-0.033793706 -0.001852067 0.1313 4278190335
-0.0096206805 -0.0017152424 0.12159999 4278190335
-0.0093354639 -0.0017152424 0.12159999 4278190335
-0.0090502473 -0.0017152424 0.12159999 4278190335
-0.0087650297 -0.0017152424 0.12159999 4278190335
-0.0084798131 -0.0017152424 0.12159999 4278190335
-0.0081945965 -0.0017152424 0.12159999 4278190335
-0.0079093808 -0.0017152424 0.12159999 4278190335
-0.0076241642 -0.0017152424 0.12159999 4278190335
-0.0073449831 -0.001716653 0.1217 4278190335
-0.0070595318 -0.001716653 0.1217 4278190335
-0.0067685139 -0.0017152424 0.12159999 4278190335
-0.0064886296 -0.001716653 0.1217 4278190335
-0.0061980812 -0.0017152424 0.12159999 4278190335
-0.0059128646 -0.0017152424 0.12159999 4278190335
-0.005627648 -0.0017152424 0.12159999 4278190335
-0.0053424314 -0.0017152424 0.12159999 4278190335
-0.0050572148 -0.0017152424 0.12159999 4278190335
-0.001638649 -0.0017194741 0.1219 4278190335
-0.0013527287 -0.0017194741 0.1219 4278190335
-0.0010685588 -0.0017222952 0.1221 4278190335
-0.0007821694 -0.0017222952 0.1221 4278190335
-0.00049578008 -0.0017222952 0.1221 4278190335
-0.00020956223 -0.0017237058 0.1222 4278190335
7.7061661e-05 -0.0017237058 0.1222 4278190335
0.00036368554 -0.0017237058 0.1222 4278190335
0.00065084157 -0.0017251164 0.1223 4278190335
0.00093846675 -0.0017265269 0.12239999 4278190335
0.0038311824 -0.0017364009 0.1231 4278190335
0.0041165706 -0.0017349903 0.123 4278190335
0.0044122338 -0.0017378115 0.1232 4278190335
0.0046973871 -0.0017364009 0.1231 4278190335
0.0049901721 -0.0017378115 0.1232 4278190335
0.0052791419 -0.0017378115 0.1232 4278190335
0.0055681113 -0.0017378115 0.1232 4278190335
0.0058475728 -0.0017349903 0.123 4278190335
0.0061360728 -0.0017349903 0.123 4278190335
0.0064193499 -0.0017335797 0.12289999 4278190335
0.0067021581 -0.0017321692 0.1228 4278190335
0.0069788042 -0.0017293481 0.1226 4278190335
0.0072604395 -0.0017279375 0.12249999 4278190335
0.0075416057 -0.0017265269 0.12239999 4278190335
0.0078159068 -0.0017237058 0.1222 4278190335
0.0080892695 -0.0017208846 0.12199999 4278190335
0.0083685592 -0.0017194741 0.1219 4278190335
0.00864028 -0.001716653 0.1217 4278190335
0.0089183971 -0.0017152424 0.12159999 4278190335
0.009188476 -0.0017124213 0.1214 4278190335
0.00944201 -0.0017067791 0.121 4278190335
0.0097097438 -0.0017039579 0.1208 4278190335
0.0099682668 -0.0016997263 0.1205 4278190335
0.010233889 -0.0016969051 0.12029999 4278190335
0.010507314 -0.0016954945 0.12019999 4278190335
0.010780272 -0.001694084 0.1201 4278190335
0.011052759 -0.0016926734 0.12 4278190335
0.011334223 -0.0016926734 0.12 4278190335
0.011615687 -0.0016926734 0.12 4278190335
0.01189715 -0.0016926734 0.12 4278190335
0.012178615 -0.0016926734 0.12 4278190335
0.012460078 -0.0016926734 0.12 4278190335
0.012741541 -0.0016926734 0.12 4278190335
0.013001299 -0.0016898523 0.11979999 4278190335
0.013271208 -0.0016884418 0.1197 4278190335
0.013551968 -0.0016884418 0.1197 4278190335
0.013832728 -0.0016884418 0.1197 4278190335
0.014125279 -0.0016898523 0.11979999 4278190335
0.014406273 -0.0016898523 0.11979999 4278190335
0.014699527 -0.0016912628 0.1199 4278190335
0.014980757 -0.0016912628 0.1199 4278190335
0.015312902 -0.0016969051 0.12029999 4278190335
0.015620996 -0.0016997263 0.1205 4278190335
0.015930029 -0.0017025473 0.12069999 4278190335
0.016240001 -0.0017053685 0.1209 4278190335
0.016537242 -0.0017067791 0.121 4278190335
0.016834952 -0.0017081896 0.12109999 4278190335
0.017133133 -0.0017096002 0.1212 4278190335
0.017431783 -0.0017110107 0.1213 4278190335
0.017716294 -0.0017110107 0.1213 4278190335
0.018000808 -0.0017110107 0.1213 4278190335
0.018285319 -0.0017110107 0.1213 4278190335
0.018569833 -0.0017110107 0.1213 4278190335
0.018854346 -0.0017110107 0.1213 4278190335
0.024680093 -0.0017406325 0.1234 4278190335
0.024989767 -0.0017420431 0.1235 4278190335
0.02529991 -0.0017434537 0.1236 4278190335
0.025900662 -0.0017448643 0.1237 4278190335
0.026190804 -0.0017448643 0.1237 4278190335
0.026459539 -0.0017434537 0.1236 4278190335
0.026771089 -0.0017448643 0.1237 4278190335
0.027373483 -0.0017462748 0.12379999 4278190335
0.027641516 -0.0017448643 0.1237 4278190335
0.027886497 -0.0017420431 0.1235 4278190335
0.02817617 -0.0017420431 0.1235 4278190335
-0.061962292 -0.001453546 0.1236 4278190335
-0.061672382 -0.001453546 0.1236 4278190335
-0.061432138 -0.001454722 0.1237 4278190335
-0.061092567 -0.001453546 0.1236 4278190335
-0.060802657 -0.001453546 0.1236 4278190335
-0.060610667 -0.0014558979 0.12379999 4278190335
-0.060320288 -0.0014558979 0.12379999 4278190335
-0.060078401 -0.001457074 0.1239 4278190335
-0.059836049 -0.00145825 0.124 4278190335
-0.059593223 -0.001459426 0.1241 4278190335
-0.059254356 -0.00145825 0.124 4278190335
-0.058971904 -0.0015029385 0.1278 4278190335
-0.058626238 -0.0015017624 0.1277 4278190335
-0.058027189 -0.0015017624 0.1277 4278190335
-0.057637252 -0.0014994104 0.1275 4278190335
-0.057338197 -0.0014994104 0.1275 4278190335
-0.056263957 -0.0014947063 0.12709999 4278190335
-0.055877779 -0.0014923543 0.1269 4278190335
-0.055492532 -0.0014900023 0.1267 4278190335
-0.05515179 -0.0014888262 0.1266 4278190335
-0.054811515 -0.0014876502 0.1265 4278190335
-0.054514807 -0.0014876502 0.1265 4278190335
-0.054218095 -0.0014876502 0.1265 4278190335
-0.053921387 -0.0014876502 0.1265 4278190335
-0.053667068 -0.0014888262 0.1266 4278190335
-0.053412281 -0.0014900023 0.1267 4278190335
-0.053115103 -0.0014900023 0.1267 4278190335
-0.052859612 -0.0014911783 0.1268 4278190335
-0.052520745 -0.0014900023 0.1267 4278190335
-0.052182347 -0.0014888262 0.1266 4278190335
-0.051844418 -0.0014876502 0.1265 4278190335
-0.051506959 -0.0014864742 0.12639999 4278190335
-0.051169965 -0.0014852982 0.12629999 4278190335
-0.050793171 -0.0014829463 0.1261 4278190335
-0.050417308 -0.0014805943 0.1259 4278190335
-0.050042383 -0.0014782422 0.1257 4278190335
-0.04962882 -0.0014747141 0.12539999 4278190335
-0.04933469 -0.0014747141 0.12539999 4278190335
-0.04904056 -0.0014747141 0.12539999 4278190335
-0.04866869 -0.0014723622 0.1252 4278190335
-0.048413664 -0.0014735381 0.12529999 4278190335
-0.048158173 -0.0014747141 0.12539999 4278190335
-0.04801672 -0.0014794182 0.1258 4278190335
-0.047873389 -0.0014841221 0.12619999 4278190335
-0.047841284 -0.0014923543 0.1269 4278190335
-0.047768429 -0.0014994104 0.1275 4278190335
-0.047729988 -0.0015076423 0.12819999 4278190335
-0.047614276 -0.0015135225 0.1287 4278190335
-0.047569737 -0.0015217545 0.1294 4278190335
-0.047412332 -0.0015264584 0.12979999 4278190335
-0.047180466 -0.0015288105 0.13 4278190335
-0.046983726 -0.0015323386 0.1303 4278190335
-0.046678104 -0.0015323386 0.1303 4278190335
-0.04644366 -0.0015346906 0.1305 4278190335
-0.046172917 -0.0015358665 0.13059999 4278190335
-0.045901712 -0.0015370426 0.13069999 4278190335
-0.04559515 -0.0015370426 0.13069999 4278190335
-0.045323242 -0.0015382186 0.13079999 4278190335
-0.045050859 -0.0015393946 0.1309 4278190335
-0.044778012 -0.0015405706 0.131 4278190335
-0.04447075 -0.0015405706 0.131 4278190335
-0.044163484 -0.0015405706 0.131 4278190335
-0.043856222 -0.0015405706 0.131 4278190335
-0.043548957 -0.0015405706 0.131 4278190335
-0.043241695 -0.0015405706 0.131 4278190335
-0.042901654 -0.0015393946 0.1309 4278190335
-0.042529542 -0.0015370426 0.13069999 4278190335
-0.042190675 -0.0015358665 0.13059999 4278190335
-0.041820213 -0.0015335146 0.1304 4278190335
-0.041482519 -0.0015323386 0.1303 4278190335
-0.041176897 -0.0015323386 0.1303 4278190335
-0.040777169 -0.0015288105 0.13 4278190335
-0.040347721 -0.0015241066 0.1296 4278190335
-0.039981946 -0.0015217545 0.1294 4278190335
-0.039555777 -0.0015170504 0.12899999 4278190335
-0.039161921 -0.0015135225 0.1287 4278190335
-0.038799662 -0.0015111704 0.1285 4278190335
-0.038438339 -0.0015088184 0.1283 4278190335
-0.038018506 -0.0015041142 0.12789999 4278190335
-0.037659533 -0.0015017624 0.1277 4278190335
-0.037330754 -0.0015005864 0.1276 4278190335
-0.037002441 -0.0014994104 0.1275 4278190335
-0.036732171 -0.0015005864 0.1276 4278190335
-0.036461435 -0.0015017624 0.1277 4278190335
-0.036218543 -0.0015041142 0.12789999 4278190335
-0.035974719 -0.0015064663 0.12809999 4278190335
-0.035757802 -0.0015099944 0.1284 4278190335
-0.035429269 -0.0015217545 0.1294 4278190335
-0.035207193 -0.0015252824 0.12969999 4278190335
-0.034506079 -0.0015346906 0.1305 4278190335
-0.03422619 -0.0015358665 0.13059999 4278190335
-0.033945836 -0.0015370426 0.13069999 4278190335
-0.033665016 -0.0015382186 0.13079999 4278190335
-0.033409227 -0.0015405706 0.131 4278190335
-0.03312723 -0.0015417467 0.1311 4278190335
-0.032869801 -0.0015440987 0.1313 4278190335
-0.0093354639 -0.0014300258 0.12159999 4278190335
-0.0090502473 -0.0014300258 0.12159999 4278190335
-0.0087650297 -0.0014300258 0.12159999 4278190335
-0.0084798131 -0.0014300258 0.12159999 4278190335
-0.0081945965 -0.0014300258 0.12159999 4278190335
-0.0079093808 -0.0014300258 0.12159999 4278190335
-0.0076241642 -0.0014300258 0.12159999 4278190335
-0.0073449831 -0.0014312018 0.1217 4278190335
-0.0070595318 -0.0014312018 0.1217 4278190335
-0.0067685139 -0.0014300258 0.12159999 4278190335
-0.0064832978 -0.0014300258 0.12159999 4278190335
-0.0061980812 -0.0014300258 0.12159999 4278190335
-0.0059080021 -0.0014288499 0.1215 4278190335
-0.0056230202 -0.0014288499 0.1215 4278190335
0.0038280701 -0.0014464899 0.123 4278190335
0.0041199173 -0.001447666 0.1231 4278190335
0.0044086524 -0.001447666 0.1231 4278190335
0.0047012032 -0.001448842 0.1232 4278190335
0.0049861218 -0.001447666 0.1231 4278190335
0.0052748569 -0.001447666 0.1231 4278190335
0.0055681113 -0.001448842 0.1232 4278190335
0.0061310837 -0.0014453139 0.12289999 4278190335
0.0069731115 -0.0014406099 0.12249999 4278190335
0.0072545125 -0.0014394339 0.12239999 4278190335
0.0075416057 -0.0014394339 0.12239999 4278190335
0.0078159068 -0.0014370818 0.1222 4278190335
0.0080892695 -0.0014347298 0.12199999 4278190335
0.0083685592 -0.0014335539 0.1219 4278190335
0.0089183971 -0.0014300258 0.12159999 4278190335
0.00944201 -0.0014229699 0.121 4278190335
0.0097017055 -0.0014194418 0.12069999 4278190335
0.0099682668 -0.0014170897 0.1205 4278190335
0.010233889 -0.0014147377 0.12029999 4278190335
0.010507314 -0.0014135616 0.12019999 4278190335
0.010771296 -0.0014112097 0.12 4278190335
0.011315332 -0.0014088576 0.11979999 4278190335
0.011596327 -0.0014088576 0.11979999 4278190335
0.011877322 -0.0014088576 0.11979999 4278190335
0.012158317 -0.0014088576 0.11979999 4278190335
0.012439311 -0.0014088576 0.11979999 4278190335
0.012709687 -0.0014076817 0.1197 4278190335
0.012979595 -0.0014065057 0.1196 4278190335
0.013249033 -0.0014053297 0.1195 4278190335
0.013529325 -0.0014053297 0.1195 4278190335
0.013809616 -0.0014053297 0.1195 4278190335
0.014089907 -0.0014053297 0.1195 4278190335
0.014370198 -0.0014053297 0.1195 4278190335
0.014687267 -0.0014088576 0.11979999 4278190335
0.014968262 -0.0014088576 0.11979999 4278190335
0.015300172 -0.0014135616 0.12019999 4278190335
0.015620996 -0.0014170897 0.1205 4278190335
0.015930029 -0.0014194418 0.12069999 4278190335
0.016240001 -0.0014217938 0.1209 4278190335
0.016537242 -0.0014229699 0.121 4278190335
0.016834952 -0.0014241458 0.12109999 4278190335
0.017133133 -0.0014253218 0.1212 4278190335
0.017431783 -0.0014264978 0.1213 4278190335
0.017716294 -0.0014264978 0.1213 4278190335
0.018000808 -0.0014264978 0.1213 4278190335
0.018285319 -0.0014264978 0.1213 4278190335
0.018569833 -0.0014264978 0.1213 4278190335
0.018854346 -0.0014264978 0.1213 4278190335
0.023734592 -0.0014464899 0.123 4278190335
0.024410421 -0.00145237 0.1235 4278190335
0.025030237 -0.001454722 0.1237 4278190335
0.025340848 -0.0014558979 0.12379999 4278190335
0.025631223 -0.0014558979 0.12379999 4278190335
0.0259216 -0.0014558979 0.12379999 4278190335
0.026211975 -0.0014558979 0.12379999 4278190335
0.026502352 -0.0014558979 0.12379999 4278190335
0.026792729 -0.0014558979 0.12379999 4278190335
0.027104983 -0.001457074 0.1239 4278190335
0.027373483 -0.0014558979 0.12379999 4278190335
0.027641516 -0.001454722 0.1237 4278190335
0.027931659 -0.001454722 0.1237 4278190335
0.028198985 -0.001453546 0.1236 4278190335
0.029092228 -0.001454722 0.1237 4278190335
-0.061962292 -0.0011636383 0.1236 4278190335
-0.061672382 -0.0011636383 0.1236 4278190335
-0.061332811 -0.0011626969 0.1235 4278190335
-0.060993709 -0.0011617554 0.1234 4278190335
-0.060704272 -0.0011617554 0.1234 4278190335
-0.06046379 -0.0011626969 0.1235 4278190335
-0.060271569 -0.0011645799 0.1237 4278190335
-0.059981424 -0.0011645799 0.1237 4278190335
-0.059739534 -0.0011655212 0.12379999 4278190335
-0.0595452 -0.0011674041 0.124 4278190335
-0.05930214 -0.0011683457 0.1241 4278190335
-0.059178904 -0.0012012966 0.1276 4278190335
-0.058971904 -0.0012031795 0.1278 4278190335
-0.058718052 -0.0012041208 0.12789999 4278190335
-0.058418058 -0.0012041208 0.12789999 4278190335
-0.058118064 -0.0012041208 0.12789999 4278190335
-0.057772871 -0.0012031795 0.1278 4278190335
-0.05742814 -0.001202238 0.1277 4278190335
-0.057128616 -0.001202238 0.1277 4278190335
-0.056740087 -0.0012003551 0.1275 4278190335
-0.056352492 -0.0011984721 0.12729999 4278190335
-0.055965841 -0.0011965892 0.12709999 4278190335
-0.055667724 -0.0011965892 0.12709999 4278190335
-0.055282485 -0.0011947064 0.1269 4278190335
-0.054941505 -0.001193765 0.1268 4278190335
-0.054644093 -0.001193765 0.1268 4278190335
-0.054346677 -0.001193765 0.1268 4278190335
-0.054049265 -0.001193765 0.1268 4278190335
-0.053751852 -0.001193765 0.1268 4278190335
-0.053496595 -0.0011947064 0.1269 4278190335
-0.053198949 -0.0011947064 0.1269 4278190335
-0.052901298 -0.0011947064 0.1269 4278190335
-0.052603651 -0.0011947064 0.1269 4278190335
-0.052306004 -0.0011947064 0.1269 4278190335
-0.051926386 -0.0011928235 0.1267 4278190335
-0.051629208 -0.0011928235 0.1267 4278190335
-0.051250998 -0.0011909405 0.1265 4278190335
-0.050873727 -0.0011890576 0.12629999 4278190335
-0.050497398 -0.0011871748 0.1261 4278190335
-0.05016182 -0.0011862334 0.126 4278190335
-0.04978713 -0.0011843503 0.1258 4278190335
-0.049492061 -0.0011843503 0.1258 4278190335
-0.049196992 -0.0011843503 0.1258 4278190335
-0.048901923 -0.0011843503 0.1258 4278190335
-0.048684135 -0.0011862334 0.126 4278190335
-0.048465401 -0.0011881161 0.12619999 4278190335
-0.048360243 -0.0011928235 0.1267 4278190335
-0.048214801 -0.0011965892 0.12709999 4278190335
-0.048142884 -0.001202238 0.1277 4278190335
-0.04810562 -0.0012088282 0.1284 4278190335
-0.047873251 -0.0012182428 0.1294 4278190335
-0.047716781 -0.0012220085 0.12979999 4278190335
-0.047521915 -0.001224833 0.1301 4278190335
-0.047289349 -0.0012267159 0.1303 4278190335
-0.047019783 -0.0012276573 0.1304 4278190335
-0.046749752 -0.0012285988 0.1305 4278190335
-0.046479244 -0.0012295401 0.13059999 4278190335
-0.046172917 -0.0012295401 0.13059999 4278190335
-0.045901712 -0.0012304815 0.13069999 4278190335
-0.04559515 -0.0012304815 0.13069999 4278190335
-0.045323242 -0.0012314231 0.13079999 4278190335
-0.045050859 -0.0012323646 0.1309 4278190335
-0.044778012 -0.001233306 0.131 4278190335
-0.04447075 -0.001233306 0.131 4278190335
-0.044163484 -0.001233306 0.131 4278190335
-0.043856222 -0.001233306 0.131 4278190335
-0.043548957 -0.001233306 0.131 4278190335
-0.043241695 -0.001233306 0.131 4278190335
-0.042901654 -0.0012323646 0.1309 4278190335
-0.042529542 -0.0012304815 0.13069999 4278190335
-0.042190675 -0.0012295401 0.13059999 4278190335
-0.041820213 -0.0012276573 0.1304 4278190335
-0.041482519 -0.0012267159 0.1303 4278190335
-0.041145291 -0.0012257744 0.1302 4278190335
-0.040777169 -0.0012238914 0.13 4278190335
-0.040347721 -0.0012201257 0.1296 4278190335
-0.039951045 -0.0012173012 0.1293 4278190335
-0.039555777 -0.0012144769 0.12899999 4278190335
-0.039161921 -0.0012116526 0.1287 4278190335
-0.038799662 -0.0012097696 0.1285 4278190335
-0.038438339 -0.0012078867 0.1283 4278190335
-0.03804823 -0.0012050623 0.12799999 4278190335
-0.037659533 -0.001202238 0.1277 4278190335
-0.037330754 -0.0012012966 0.1276 4278190335
-0.037002441 -0.0012003551 0.1275 4278190335
-0.036732171 -0.0012012966 0.1276 4278190335
-0.036461435 -0.001202238 0.1277 4278190335
-0.03619023 -0.0012031795 0.1278 4278190335
-0.035918549 -0.0012041208 0.12789999 4278190335
-0.035264991 -0.001212594 0.12879999 4278190335
-0.035044324 -0.0012154183 0.12909999 4278190335
-0.034822248 -0.0012182428 0.1294 4278190335
-0.03434743 -0.0012229499 0.12989999 4278190335
-0.034068953 -0.0012238914 0.13 4278190335
-0.033790004 -0.001224833 0.1301 4278190335
-0.033536326 -0.0012267159 0.1303 4278190335
-0.033230703 -0.0012267159 0.1303 4278190335
-0.032950353 -0.0012276573 0.1304 4278190335
-0.03269456 -0.0012295401 0.13059999 4278190335
-0.0084798131 -0.0011448092 0.12159999 4278190335
-0.0081945965 -0.0011448092 0.12159999 4278190335
-0.0079093808 -0.0011448092 0.12159999 4278190335
-0.0076304344 -0.0011457506 0.1217 4278190335
-0.0073449831 -0.0011457506 0.1217 4278190335
-0.007053731 -0.0011448092 0.12159999 4278190335
-0.0067740805 -0.0011457506 0.1217 4278190335
-0.0064832978 -0.0011448092 0.12159999 4278190335
-0.0061980812 -0.0011448092 0.12159999 4278190335
-0.0059128646 -0.0011448092 0.12159999 4278190335
-0.0056230202 -0.0011438678 0.1215 4278190335
-0.0053336448 -0.0011429264 0.1214 4278190335
0.0038280701 -0.0011579896 0.123 4278190335
0.0041165706 -0.0011579896 0.123 4278190335
0.004405071 -0.0011579896 0.123 4278190335
0.0046973871 -0.0011589311 0.1231 4278190335
0.0049820715 -0.0011579896 0.123 4278190335
0.0052791419 -0.0011598725 0.1232 4278190335
0.0055635916 -0.0011589311 0.1231 4278190335
0.0058475728 -0.0011579896 0.123 4278190335
0.0061310837 -0.0011570482 0.12289999 4278190335
0.0064089033 -0.0011551653 0.1227 4278190335
0.0066857846 -0.0011532824 0.12249999 4278190335
0.0069674193 -0.0011523408 0.12239999 4278190335
0.0072545125 -0.0011523408 0.12239999 4278190335
0.0075292829 -0.001150458 0.1222 4278190335
0.0078095105 -0.0011495166 0.1221 4278190335
0.0080826394 -0.0011476337 0.1219 4278190335
0.0083616944 -0.0011466922 0.1218 4278190335
0.0086331805 -0.0011448092 0.12159999 4278190335
0.008911063 -0.0011438678 0.1215 4278190335
0.0091809072 -0.0011419848 0.1213 4278190335
0.00944201 -0.0011391605 0.121 4278190335
0.0097017055 -0.0011363361 0.12069999 4278190335
0.0099682668 -0.0011344532 0.1205 4278190335
0.010233889 -0.0011325703 0.12029999 4278190335
0.010498574 -0.0011306874 0.1201 4278190335
0.010771296 -0.001129746 0.12 4278190335
0.011043549 -0.0011288045 0.1199 4278190335
0.011315332 -0.0011278631 0.11979999 4278190335
0.011857494 -0.0011259802 0.1196 4278190335
0.012148168 -0.0011269216 0.1197 4278190335
0.012418545 -0.0011259802 0.1196 4278190335
0.012688451 -0.0011250387 0.1195 4278190335
0.01295789 -0.0011240973 0.11939999 4278190335
0.01322686 -0.0011231558 0.1193 4278190335
0.013506682 -0.0011231558 0.1193 4278190335
0.013786504 -0.0011231558 0.1193 4278190335
0.014078116 -0.0011240973 0.11939999 4278190335
0.014370198 -0.0011250387 0.1195 4278190335
0.014662748 -0.0011259802 0.1196 4278190335
0.014968262 -0.0011278631 0.11979999 4278190335
0.015300172 -0.0011316289 0.12019999 4278190335
0.015608033 -0.0011335118 0.1204 4278190335
0.015930029 -0.0011363361 0.12069999 4278190335
0.016226567 -0.0011372776 0.1208 4278190335
0.016537242 -0.0011391605 0.121 4278190335
0.016834952 -0.0011401019 0.12109999 4278190335
0.017147269 -0.0011419848 0.1213 4278190335
0.017431783 -0.0011419848 0.1213 4278190335
0.017716294 -0.0011419848 0.1213 4278190335
0.018000808 -0.0011419848 0.1213 4278190335
0.018285319 -0.0011419848 0.1213 4278190335
0.018569833 -0.0011419848 0.1213 4278190335
0.018854346 -0.0011419848 0.1213 4278190335
0.024081685 -0.001160814 0.12329999 4278190335
0.025030237 -0.0011645799 0.1237 4278190335
0.025340848 -0.0011655212 0.12379999 4278190335
0.025631223 -0.0011655212 0.12379999 4278190335
0.0259216 -0.0011655212 0.12379999 4278190335
0.026211975 -0.0011655212 0.12379999 4278190335
0.026502352 -0.0011655212 0.12379999 4278190335
0.026836013 -0.0011674041 0.124 4278190335
0.02712686 -0.0011674041 0.124 4278190335
0.027395595 -0.0011664627 0.1239 4278190335
0.02766386 -0.0011655212 0.12379999 4278190335
0.028221801 -0.0011645799 0.1237 4278190335
0.028511943 -0.0011645799 0.1237 4278190335
0.028825367 -0.0011655212 0.12379999 4278190335
0.029115744 -0.0011655212 0.12379999 4278190335
-0.061912157 -0.00087302376 0.1235 4278190335
-0.061572585 -0.00087231689 0.1234 4278190335
-0.061233487 -0.00087160995 0.12329999 4278190335
-0.060894858 -0.00087090308 0.1232 4278190335
-0.060655076 -0.00087160995 0.12329999 4278190335
-0.060365874 -0.00087160995 0.12329999 4278190335
-0.060125392 -0.00087231689 0.1234 4278190335
-0.059884444 -0.00087302376 0.1235 4278190335
-0.059691284 -0.00087443762 0.1237 4278190335
-0.059449159 -0.0008751445 0.12379999 4278190335
-0.059254356 -0.0008765583 0.124 4278190335
-0.059153713 -0.00087938592 0.1244 4278190335
-0.059145831 -0.00088362733 0.125 4278190335
-0.059384964 -0.00090059295 0.1274 4278190335
-0.059225284 -0.00090271368 0.1277 4278190335
-0.058971904 -0.00090342062 0.1278 4278190335
-0.058718052 -0.00090412743 0.12789999 4278190335
-0.058463734 -0.00090483431 0.12799999 4278190335
-0.058163505 -0.00090483431 0.12799999 4278190335
-0.057863276 -0.00090483431 0.12799999 4278190335
-0.057563048 -0.00090483431 0.12799999 4278190335
-0.057218082 -0.00090412743 0.12789999 4278190335
-0.056918088 -0.00090412743 0.12789999 4278190335
-0.056529567 -0.00090271368 0.1277 4278190335
-0.056141976 -0.00090129988 0.1275 4278190335
-0.055755321 -0.00089988601 0.12729999 4278190335
-0.055369604 -0.00089847221 0.12709999 4278190335
-0.055028167 -0.00089776539 0.127 4278190335
-0.054687187 -0.00089705846 0.1269 4278190335
-0.05438954 -0.00089705846 0.1269 4278190335
-0.054091893 -0.00089705846 0.1269 4278190335
-0.053794242 -0.00089705846 0.1269 4278190335
-0.053496595 -0.00089705846 0.1269 4278190335
-0.053282786 -0.00089847221 0.12709999 4278190335
-0.05298467 -0.00089847221 0.12709999 4278190335
-0.052686553 -0.00089847221 0.12709999 4278190335
-0.052388433 -0.00089847221 0.12709999 4278190335
-0.052049339 -0.00089776539 0.127 4278190335
-0.051710706 -0.00089705846 0.1269 4278190335
-0.051332027 -0.00089564465 0.1267 4278190335
-0.051034849 -0.00089564465 0.1267 4278190335
-0.050657578 -0.00089423085 0.1265 4278190335
-0.050321061 -0.00089352392 0.12639999 4278190335
-0.049985006 -0.00089281698 0.12629999 4278190335
-0.04972811 -0.00089352392 0.12639999 4278190335
-0.049470741 -0.00089423085 0.1265 4278190335
-0.049174033 -0.00089423085 0.1265 4278190335
-0.048993241 -0.00089635159 0.1268 4278190335
-0.048811033 -0.00089847221 0.12709999 4278190335
-0.048665594 -0.00090129988 0.1275 4278190335
-0.048556209 -0.00090483431 0.12799999 4278190335
-0.048444483 -0.00090836891 0.1285 4278190335
-0.048367877 -0.00091261027 0.12909999 4278190335
-0.048251223 -0.00091614487 0.1296 4278190335
-0.048021231 -0.00091755856 0.12979999 4278190335
-0.04786383 -0.00092038623 0.1302 4278190335
-0.047631498 -0.00092180003 0.1304 4278190335
-0.047398221 -0.00092321378 0.13059999 4278190335
-0.047127955 -0.00092392071 0.13069999 4278190335
-0.046821393 -0.00092392071 0.13069999 4278190335
-0.046514831 -0.00092392071 0.13069999 4278190335
-0.04620827 -0.00092392071 0.13069999 4278190335
-0.045901712 -0.00092392071 0.13069999 4278190335
-0.045630034 -0.00092462759 0.13079999 4278190335
-0.045323242 -0.00092462759 0.13079999 4278190335
-0.045016445 -0.00092462759 0.13079999 4278190335
-0.044743832 -0.00092533452 0.1309 4278190335
-0.044436801 -0.00092533452 0.1309 4278190335
-0.04412977 -0.00092533452 0.1309 4278190335
-0.043822743 -0.00092533452 0.1309 4278190335
-0.043515716 -0.00092533452 0.1309 4278190335
-0.043208685 -0.00092533452 0.1309 4278190335
-0.042868879 -0.00092462759 0.13079999 4278190335
-0.042529542 -0.00092392071 0.13069999 4278190335
-0.042158376 -0.00092250697 0.1305 4278190335
-0.041820213 -0.00092180003 0.1304 4278190335
-0.041482519 -0.00092109316 0.1303 4278190335
-0.041176897 -0.00092109316 0.1303 4278190335
-0.040777169 -0.00091897242 0.13 4278190335
-0.040347721 -0.00091614487 0.1296 4278190335
-0.039981946 -0.000914731 0.1294 4278190335
-0.039555777 -0.00091190333 0.12899999 4278190335
-0.039161921 -0.00090978271 0.1287 4278190335
-0.038799662 -0.00090836891 0.1285 4278190335
-0.038438339 -0.00090695504 0.1283 4278190335
-0.038018506 -0.00090412743 0.12789999 4278190335
-0.037659533 -0.00090271368 0.1277 4278190335
-0.037360009 -0.00090271368 0.1277 4278190335
-0.037002441 -0.00090129988 0.1275 4278190335
-0.036703385 -0.00090129988 0.1275 4278190335
-0.036432881 -0.00090200675 0.1276 4278190335
-0.036161911 -0.00090271368 0.1277 4278190335
-0.035918549 -0.00090412743 0.12789999 4278190335
-0.0084867869 -0.00086029957 0.1217 4278190335
-0.0081945965 -0.00085959263 0.12159999 4278190335
-0.0079093808 -0.00085959263 0.12159999 4278190335
-0.0076241642 -0.00085959263 0.12159999 4278190335
-0.0073449831 -0.00086029957 0.1217 4278190335
-0.0070595318 -0.00086029957 0.1217 4278190335
-0.0067740805 -0.00086029957 0.1217 4278190335
-0.0064886296 -0.00086029957 0.1217 4278190335
-0.0061980812 -0.00085959263 0.12159999 4278190335
-0.0059128646 -0.00085959263 0.12159999 4278190335
-0.005627648 -0.00085959263 0.12159999 4278190335
-0.0053380383 -0.00085888576 0.1215 4278190335
-0.0050488971 -0.00085817889 0.1214 4278190335
-0.0047641494 -0.00085817889 0.1214 4278190335
0.0069674193 -0.00086524786 0.12239999 4278190335
0.007248586 -0.00086454098 0.1223 4278190335
0.0075292829 -0.00086383405 0.1222 4278190335
0.0078031141 -0.00086242025 0.12199999 4278190335
0.0080826394 -0.00086171337 0.1219 4278190335
0.0083548287 -0.00086029957 0.1217 4278190335
0.0086331805 -0.00085959263 0.12159999 4278190335
0.008911063 -0.00085888576 0.1215 4278190335
0.0091809072 -0.00085747195 0.1213 4278190335
0.0094498126 -0.00085605809 0.12109999 4278190335
0.0097097438 -0.00085393741 0.1208 4278190335
0.0099848108 -0.00085323054 0.12069999 4278190335
0.010242396 -0.0008511098 0.1204 4278190335
0.010516057 -0.00085040292 0.12029999 4278190335
0.010789248 -0.00084969599 0.12019999 4278190335
0.01106197 -0.00084898912 0.1201 4278190335
0.011334223 -0.00084828224 0.12 4278190335
0.011606007 -0.00084757531 0.1199 4278190335
0.011877322 -0.00084686838 0.11979999 4278190335
0.012158317 -0.00084686838 0.11979999 4278190335
0.012428928 -0.00084616151 0.1197 4278190335
0.012699069 -0.00084545463 0.1196 4278190335
0.012968742 -0.0008447477 0.1195 4278190335
0.013237947 -0.00084404077 0.11939999 4278190335
0.013506682 -0.00084333395 0.1193 4278190335
0.013786504 -0.00084333395 0.1193 4278190335
0.014078116 -0.00084404077 0.11939999 4278190335
0.014370198 -0.0008447477 0.1195 4278190335
0.014675008 -0.00084616151 0.1197 4278190335
0.014993251 -0.00084828224 0.12 4278190335
0.015312902 -0.00085040292 0.12029999 4278190335
0.015633959 -0.00085252366 0.1206 4278190335
0.015943227 -0.00085393741 0.1208 4278190335
0.016253432 -0.00085535127 0.121 4278190335
0.016537242 -0.00085535127 0.121 4278190335
0.016862756 -0.00085747195 0.1213 4278190335
0.017147269 -0.00085747195 0.1213 4278190335
0.017431783 -0.00085747195 0.1213 4278190335
0.017730899 -0.00085817889 0.1214 4278190335
0.018000808 -0.00085747195 0.1213 4278190335
0.018285319 -0.00085747195 0.1213 4278190335
0.018554524 -0.00085676502 0.1212 4278190335
0.025050471 -0.0008751445 0.12379999 4278190335
0.025340848 -0.0008751445 0.12379999 4278190335
0.025651926 -0.00087585137 0.1239 4278190335
0.025942538 -0.00087585137 0.1239 4278190335
0.02623315 -0.00087585137 0.1239 4278190335
0.02652376 -0.00087585137 0.1239 4278190335
0.026857657 -0.00087726524 0.1241 4278190335
0.027170612 -0.00087797205 0.12419999 4278190335
0.027439818 -0.00087726524 0.1241 4278190335
0.027708553 -0.0008765583 0.124 4278190335
0.027954238 -0.0008751445 0.12379999 4278190335
0.028244615 -0.0008751445 0.12379999 4278190335
-0.061862025 -0.00058287836 0.1234 4278190335
-0.061522689 -0.00058240601 0.12329999 4278190335
-0.061183825 -0.00058193371 0.1232 4278190335
-0.060845427 -0.00058146135 0.1231 4278190335
-0.060507499 -0.000580989 0.123 4278190335
-0.060218997 -0.000580989 0.123 4278190335
-0.059979223 -0.00058146135 0.1231 4278190335
-0.059738979 -0.00058193371 0.1232 4278190335
-0.059498262 -0.00058240601 0.12329999 4278190335
-0.059305098 -0.00058335072 0.1235 4278190335
-0.059003878 -0.00058901892 0.12469999 4278190335
-0.059245124 -0.00060035527 0.12709999 4278190335
-0.059086144 -0.00060177234 0.1274 4278190335
-0.058925759 -0.0006031894 0.1277 4278190335
-0.058718052 -0.00060413405 0.12789999 4278190335
-0.058463734 -0.00060460641 0.12799999 4278190335
-0.058208946 -0.00060507876 0.12809999 4278190335
-0.057953689 -0.00060555112 0.12819999 4278190335
-0.05760802 -0.00060507876 0.12809999 4278190335
-0.057262819 -0.00060460641 0.12799999 4278190335
-0.056918088 -0.00060413405 0.12789999 4278190335
-0.056618098 -0.00060413405 0.12789999 4278190335
-0.056274075 -0.00060366176 0.1278 4278190335
-0.055886719 -0.00060271705 0.1276 4278190335
-0.055158149 -0.00060129998 0.12729999 4278190335
-0.054475255 -0.00060035527 0.12709999 4278190335
-0.054177139 -0.00060035527 0.12709999 4278190335
-0.053879019 -0.00060035527 0.12709999 4278190335
-0.053580903 -0.00060035527 0.12709999 4278190335
-0.053324711 -0.00060082763 0.12719999 4278190335
-0.05298467 -0.00060035527 0.12709999 4278190335
-0.052686553 -0.00060035527 0.12709999 4278190335
-0.052388433 -0.00060035527 0.12709999 4278190335
-0.052090317 -0.00060035527 0.12709999 4278190335
-0.051792201 -0.00060035527 0.12709999 4278190335
-0.051413059 -0.00059941062 0.1269 4278190335
-0.051115412 -0.00059941062 0.1269 4278190335
-0.050777718 -0.00059893826 0.1268 4278190335
-0.050480306 -0.00059893826 0.1268 4278190335
-0.050222471 -0.00059941062 0.1269 4278190335
-0.049964163 -0.00059988297 0.127 4278190335
-0.049744494 -0.00060082763 0.12719999 4278190335
-0.04956276 -0.00060224469 0.1275 4278190335
-0.049340982 -0.0006031894 0.1277 4278190335
-0.049118262 -0.00060413405 0.12789999 4278190335
-0.048708383 -0.00061027461 0.1292 4278190335
-0.048555207 -0.00061216403 0.1296 4278190335
-0.048437376 -0.00061452575 0.1301 4278190335
-0.048243213 -0.00061594282 0.1304 4278190335
-0.048047639 -0.00061735982 0.13069999 4278190335
-0.047777604 -0.00061783218 0.13079999 4278190335
-0.047470808 -0.00061783218 0.13079999 4278190335
-0.047200073 -0.00061830453 0.1309 4278190335
-0.046893042 -0.00061830453 0.1309 4278190335
-0.046586011 -0.00061830453 0.1309 4278190335
-0.04620827 -0.00061735982 0.13069999 4278190335
-0.045901712 -0.00061735982 0.13069999 4278190335
-0.04559515 -0.00061735982 0.13069999 4278190335
-0.045288589 -0.00061735982 0.13069999 4278190335
-0.044982027 -0.00061735982 0.13069999 4278190335
-0.044709649 -0.00061783218 0.13079999 4278190335
-0.044402853 -0.00061783218 0.13079999 4278190335
-0.044096056 -0.00061783218 0.13079999 4278190335
-0.043789268 -0.00061783218 0.13079999 4278190335
-0.043482471 -0.00061783218 0.13079999 4278190335
-0.043142665 -0.00061735982 0.13069999 4278190335
-0.042836104 -0.00061735982 0.13069999 4278190335
-0.042497002 -0.00061688747 0.13059999 4278190335
-0.042158376 -0.00061641517 0.1305 4278190335
-0.041788142 -0.00061547046 0.1303 4278190335
-0.041482519 -0.00061547046 0.1303 4278190335
-0.04111369 -0.00061452575 0.1301 4278190335
-0.040777169 -0.0006140534 0.13 4278190335
-0.040347721 -0.00061216403 0.1296 4278190335
-0.039951045 -0.00061074697 0.1293 4278190335
-0.039555777 -0.0006093299 0.12899999 4278190335
-0.039161921 -0.00060791289 0.1287 4278190335
-0.038799662 -0.00060696818 0.1285 4278190335
-0.038438339 -0.00060602347 0.1283 4278190335
-0.03804823 -0.00060460641 0.12799999 4278190335
-0.037659533 -0.0006031894 0.1277 4278190335
-0.037330754 -0.00060271705 0.1276 4278190335
-0.037002441 -0.00060224469 0.1275 4278190335
-0.036732171 -0.00060271705 0.1276 4278190335
-0.036432881 -0.00060271705 0.1276 4278190335
-0.036133591 -0.00060271705 0.1276 4278190335
-0.035862386 -0.0006031894 0.1277 4278190335
-0.035155475 -0.00060649583 0.1284 4278190335
-0.034660783 -0.00060838519 0.12879999 4278190335
-0.03441203 -0.0006093299 0.12899999 4278190335
-0.034162339 -0.00061027461 0.1292 4278190335
-0.033859298 -0.00061027461 0.1292 4278190335
-0.033052184 -0.00061216403 0.1296 4278190335
-0.0082013356 -0.00057484844 0.1217 4278190335
-0.0079158852 -0.00057484844 0.1217 4278190335
-0.0076304344 -0.00057484844 0.1217 4278190335
-0.0073449831 -0.00057484844 0.1217 4278190335
-0.0070595318 -0.00057484844 0.1217 4278190335
-0.0067740805 -0.00057484844 0.1217 4278190335
-0.0064886296 -0.00057484844 0.1217 4278190335
-0.0061980812 -0.00057437608 0.12159999 4278190335
-0.0059128646 -0.00057437608 0.12159999 4278190335
-0.0056230202 -0.00057390379 0.1215 4278190335
-0.0053380383 -0.00057390379 0.1215 4278190335
-0.0050488971 -0.00057343143 0.1214 4278190335
0.0052748569 -0.00058146135 0.1231 4278190335
0.0055590724 -0.000580989 0.123 4278190335
0.0066803265 -0.00057815487 0.12239999 4278190335
0.006961727 -0.00057768257 0.1223 4278190335
0.0072426591 -0.00057721022 0.1222 4278190335
0.0075231213 -0.00057673786 0.1221 4278190335
0.0078031141 -0.00057626551 0.12199999 4278190335
0.0080826394 -0.00057579315 0.1219 4278190335
0.0086331805 -0.00057437608 0.12159999 4278190335
0.008911063 -0.00057390379 0.1215 4278190335
0.009188476 -0.00057343143 0.1214 4278190335
0.0094576161 -0.00057248672 0.1212 4278190335
0.0097258193 -0.00057154201 0.121 4278190335
0.010001357 -0.00057106966 0.1209 4278190335
0.010276424 -0.0005705973 0.1208 4278190335
0.010551022 -0.00057012495 0.12069999 4278190335
0.010816176 -0.00056918029 0.1205 4278190335
0.011098812 -0.00056918029 0.1205 4278190335
0.011372004 -0.00056870794 0.1204 4278190335
0.012470461 -0.00056729087 0.1201 4278190335
0.012741541 -0.00056681852 0.12 4278190335
0.013012152 -0.00056634616 0.1199 4278190335
0.013551968 -0.00056540151 0.1197 4278190335
0.013832728 -0.00056540151 0.1197 4278190335
0.014113489 -0.00056540151 0.1197 4278190335
0.014394249 -0.00056540151 0.1197 4278190335
0.014699527 -0.00056634616 0.1199 4278190335
0.01501824 -0.00056776323 0.12019999 4278190335
0.015338359 -0.00056918029 0.1205 4278190335
0.015659887 -0.0005705973 0.1208 4278190335
0.015969623 -0.00057154201 0.121 4278190335
0.016266864 -0.00057201437 0.12109999 4278190335
0.016564576 -0.00057248672 0.1212 4278190335
0.016862756 -0.00057295908 0.1213 4278190335
0.017161407 -0.00057343143 0.1214 4278190335
0.017446153 -0.00057343143 0.1214 4278190335
0.017730899 -0.00057343143 0.1214 4278190335
0.018015647 -0.00057343143 0.1214 4278190335
0.018285319 -0.00057295908 0.1213 4278190335
0.018539215 -0.00057201437 0.12109999 4278190335
0.024760094 -0.00058476778 0.12379999 4278190335
0.025050471 -0.00058476778 0.12379999 4278190335
0.025381787 -0.00058571249 0.124 4278190335
0.025672629 -0.00058571249 0.124 4278190335
0.025984416 -0.00058618485 0.1241 4278190335
0.02623315 -0.00058524014 0.1239 4278190335
0.026545169 -0.00058571249 0.124 4278190335
0.026879298 -0.00058665714 0.12419999 4278190335
0.027170612 -0.00058665714 0.12419999 4278190335
0.027461927 -0.00058665714 0.12419999 4278190335
0.027753243 -0.00058665714 0.12419999 4278190335
0.027999397 -0.00058571249 0.124 4278190335
0.028290244 -0.00058571249 0.124 4278190335
-0.061761767 -0.00029296428 0.1232 4278190335
-0.061472796 -0.00029296428 0.1232 4278190335
-0.061134163 -0.00029272647 0.1231 4278190335
-0.060796 -0.00029248869 0.123 4278190335
-0.060409114 -0.00029201311 0.1228 4278190335
-0.060121082 -0.00029201311 0.1228 4278190335
-0.059833053 -0.00029201311 0.1228 4278190335
-0.059593506 -0.00029225089 0.12289999 4278190335
-0.059401754 -0.00029272647 0.1231 4278190335
-0.059161037 -0.00029296428 0.1232 4278190335
-0.058909249 -0.00029605563 0.1245 4278190335
-0.059040964 -0.00029819578 0.12539999 4278190335
-0.059121612 -0.00030009812 0.12619999 4278190335
-0.059058677 -0.00030128713 0.1267 4278190335
-0.058947008 -0.0003022383 0.12709999 4278190335
-0.058833469 -0.0003031895 0.1275 4278190335
-0.058626238 -0.00030366509 0.1277 4278190335
-0.058418058 -0.00030414065 0.12789999 4278190335
-0.058208946 -0.00030461626 0.12809999 4278190335
-0.057908483 -0.00030461626 0.12809999 4278190335
-0.05760802 -0.00030461626 0.12809999 4278190335
-0.05730756 -0.00030461626 0.12809999 4278190335
-0.057007097 -0.00030461626 0.12809999 4278190335
-0.056706633 -0.00030461626 0.12809999 4278190335
-0.056362137 -0.00030437845 0.12799999 4278190335
-0.05601811 -0.00030414065 0.12789999 4278190335
-0.054177139 -0.0003022383 0.12709999 4278190335
-0.053879019 -0.0003022383 0.12709999 4278190335
-0.053623062 -0.00030247611 0.12719999 4278190335
-0.053324711 -0.00030247611 0.12719999 4278190335
-0.053026356 -0.00030247611 0.12719999 4278190335
-0.052728005 -0.00030247611 0.12719999 4278190335
-0.052429654 -0.00030247611 0.12719999 4278190335
-0.052131303 -0.00030247611 0.12719999 4278190335
-0.051792201 -0.0003022383 0.12709999 4278190335
-0.051494084 -0.0003022383 0.12709999 4278190335
-0.051276527 -0.00030271389 0.12729999 4278190335
-0.050977942 -0.00030271389 0.12729999 4278190335
-0.050758984 -0.0003031895 0.1275 4278190335
-0.050499503 -0.00030342728 0.1276 4278190335
-0.050278898 -0.0003039029 0.1278 4278190335
-0.050057352 -0.00030437845 0.12799999 4278190335
-0.049873743 -0.00030509185 0.1283 4278190335
-0.049650088 -0.00030556746 0.1285 4278190335
-0.049463894 -0.00030628082 0.12879999 4278190335
-0.049314469 -0.00030723203 0.1292 4278190335
-0.049125232 -0.00030794542 0.1295 4278190335
-0.048972283 -0.00030889659 0.12989999 4278190335
-0.048817463 -0.00030984779 0.1303 4278190335
-0.048623528 -0.00031056115 0.13059999 4278190335
-0.048354197 -0.00031079893 0.13069999 4278190335
-0.048121162 -0.00031127455 0.1309 4278190335
-0.047850661 -0.00031151235 0.131 4278190335
-0.047543395 -0.00031151235 0.131 4278190335
-0.04723613 -0.00031151235 0.131 4278190335
-0.046928868 -0.00031151235 0.131 4278190335
-0.046586011 -0.00031127455 0.1309 4278190335
-0.046243627 -0.00031103674 0.13079999 4278190335
-0.045901712 -0.00031079893 0.13069999 4278190335
-0.04559515 -0.00031079893 0.13069999 4278190335
-0.045288589 -0.00031079893 0.13069999 4278190335
-0.044982027 -0.00031079893 0.13069999 4278190335
-0.044675466 -0.00031079893 0.13069999 4278190335
-0.044368904 -0.00031079893 0.13069999 4278190335
-0.044062346 -0.00031079893 0.13069999 4278190335
-0.043722309 -0.00031056115 0.13059999 4278190335
-0.043449227 -0.00031079893 0.13069999 4278190335
-0.043142665 -0.00031079893 0.13069999 4278190335
-0.042803328 -0.00031056115 0.13059999 4278190335
-0.042464469 -0.00031032338 0.1305 4278190335
-0.042158376 -0.00031032338 0.1305 4278190335
-0.041788142 -0.00030984779 0.1303 4278190335
-0.041418843 -0.00030937218 0.1301 4278190335
-0.041145291 -0.00030960998 0.1302 4278190335
-0.040777169 -0.00030913437 0.13 4278190335
-0.040347721 -0.00030818323 0.1296 4278190335
-0.039920148 -0.00030723203 0.1292 4278190335
-0.039525114 -0.00030651863 0.12889999 4278190335
-0.039161921 -0.00030604305 0.1287 4278190335
-0.038799662 -0.00030556746 0.1285 4278190335
-0.038438339 -0.00030509185 0.1283 4278190335
-0.03804823 -0.00030437845 0.12799999 4278190335
-0.037689023 -0.0003039029 0.1278 4278190335
-0.037330754 -0.00030342728 0.1276 4278190335
-0.037031461 -0.00030342728 0.1276 4278190335
-0.03676096 -0.00030366509 0.1277 4278190335
-0.03640433 -0.0003031895 0.1275 4278190335
-0.034827162 -0.00030509185 0.1283 4278190335
-0.034580052 -0.00030556746 0.1285 4278190335
-0.034332003 -0.00030604305 0.1287 4278190335
-0.034083012 -0.00030651863 0.12889999 4278190335
-0.033780675 -0.00030651863 0.12889999 4278190335
-0.03353028 -0.00030699422 0.12909999 4278190335
-0.03327895 -0.00030746983 0.1293 4278190335
-0.033052184 -0.00030818323 0.1296 4278190335
-0.032748204 -0.00030818323 0.1296 4278190335
-0.0076304344 -0.00028939734 0.1217 4278190335
-0.0070595318 -0.00028939734 0.1217 4278190335
-0.0067740805 -0.00028939734 0.1217 4278190335
-0.0064832978 -0.00028915954 0.12159999 4278190335
-0.0061980812 -0.00028915954 0.12159999 4278190335
-0.0059128646 -0.00028915954 0.12159999 4278190335
-0.0056230202 -0.00028892176 0.1215 4278190335
-0.0053336448 -0.00028868395 0.1214 4278190335
0.015376546 -0.00028725719 0.1208 4278190335
0.015685814 -0.00028773278 0.121 4278190335
0.015982822 -0.00028797056 0.12109999 4278190335
0.016293731 -0.00028844617 0.1213 4278190335
0.016578244 -0.00028844617 0.1213 4278190335
0.016876658 -0.00028868395 0.1214 4278190335
0.017161407 -0.00028868395 0.1214 4278190335
0.017460525 -0.00028892176 0.1215 4278190335
0.017730899 -0.00028868395 0.1214 4278190335
0.018015647 -0.00028868395 0.1214 4278190335
0.018285319 -0.00028844617 0.1213 4278190335
0.018539215 -0.00028797056 0.12109999 4278190335
0.02415981 -0.00029415326 0.1237 4278190335
0.024469716 -0.00029439104 0.12379999 4278190335
0.024780095 -0.00029462884 0.1239 4278190335
0.02509094 -0.00029486665 0.124 4278190335
0.025402255 -0.00029510446 0.1241 4278190335
0.025693335 -0.00029510446 0.1241 4278190335
0.026005352 -0.00029534224 0.12419999 4278190335
0.026275495 -0.00029510446 0.1241 4278190335
0.026566576 -0.00029510446 0.1241 4278190335
0.02690094 -0.00029558002 0.1243 4278190335
0.027214367 -0.00029581782 0.1244 4278190335
0.02750615 -0.00029581782 0.1244 4278190335
0.027775589 -0.00029558002 0.1243 4278190335
0.028044557 -0.00029534224 0.12419999 4278190335
0.028313059 -0.00029510446 0.1241 4278190335
-0.0616615 -3.9883616e-06 0.123 4278190335
-0.061372999 -3.9883616e-06 0.123 4278190335
-0.061034836 -3.9851188e-06 0.12289999 4278190335
-0.060647719 -3.9786341e-06 0.1227 4278190335
-0.060261533 -3.9721485e-06 0.12249999 4278190335
-0.059974205 -3.9721485e-06 0.12249999 4278190335
-0.059686877 -3.9721485e-06 0.12249999 4278190335
-0.059448041 -3.9753913e-06 0.1226 4278190335
-0.05925699 -3.9818765e-06 0.1228 4278190335
-0.059064995 -3.9883616e-06 0.123 4278190335
-0.058820855 -4.0110599e-06 0.1237 4278190335
-0.058814611 -4.0305149e-06 0.1243 4278190335
-0.058852639 -4.0532132e-06 0.125 4278190335
-0.058934227 -4.0791538e-06 0.1258 4278190335
-0.058872223 -4.0953664e-06 0.12629999 4278190335
-0.058761496 -4.1083367e-06 0.1267 4278190335
-0.058648892 -4.121307e-06 0.12709999 4278190335
-0.058534417 -4.1342773e-06 0.1275 4278190335
-0.05837239 -4.1440053e-06 0.1278 4278190335
-0.058118064 -4.1472472e-06 0.12789999 4278190335
-0.057908483 -4.1537328e-06 0.12809999 4278190335
-0.05760802 -4.1537328e-06 0.12809999 4278190335
-0.05730756 -4.1537328e-06 0.12809999 4278190335
-0.056962594 -4.15049e-06 0.12799999 4278190335
-0.056706633 -4.1537328e-06 0.12809999 4278190335
-0.05640617 -4.1537328e-06 0.12809999 4278190335
-0.056061909 -4.15049e-06 0.12799999 4278190335
-0.054560978 -4.1277922e-06 0.12729999 4278190335
-0.054262388 -4.1277922e-06 0.12729999 4278190335
-0.053963803 -4.1277922e-06 0.12729999 4278190335
-0.053623062 -4.1245494e-06 0.12719999 4278190335
-0.053366631 -4.1277922e-06 0.12729999 4278190335
-0.053068046 -4.1277922e-06 0.12729999 4278190335
-0.05276946 -4.1277922e-06 0.12729999 4278190335
-0.052470874 -4.1277922e-06 0.12729999 4278190335
-0.05221327 -4.1310345e-06 0.1274 4278190335
-0.051995952 -4.1375201e-06 0.1276 4278190335
-0.051737174 -4.1407625e-06 0.1277 4278190335
-0.051518206 -4.1472472e-06 0.12789999 4278190335
-0.051298305 -4.1537328e-06 0.12809999 4278190335
-0.05107747 -4.1602179e-06 0.1283 4278190335
-0.050816115 -4.1634603e-06 0.1284 4278190335
-0.050632976 -4.1731882e-06 0.1287 4278190335
-0.050448425 -4.1829157e-06 0.12899999 4278190335
-0.05026247 -4.1926437e-06 0.1293 4278190335
-0.05007511 -4.2023717e-06 0.1296 4278190335
-0.049809527 -4.2056135e-06 0.12969999 4278190335
-0.04961982 -4.2153415e-06 0.13 4278190335
-0.049428709 -4.2250695e-06 0.1303 4278190335
-0.049198486 -4.2315546e-06 0.1305 4278190335
-0.04896732 -4.2380393e-06 0.13069999 4278190335
-0.048772454 -4.2477673e-06 0.131 4278190335
-0.048465189 -4.2477673e-06 0.131 4278190335
-0.048194688 -4.2510101e-06 0.1311 4278190335
-0.047887187 -4.2510101e-06 0.1311 4278190335
-0.047579687 -4.2510101e-06 0.1311 4278190335
-0.04723613 -4.2477673e-06 0.131 4278190335
-0.046928868 -4.2477673e-06 0.131 4278190335
-0.046586011 -4.2445245e-06 0.1309 4278190335
-0.04620827 -4.2380393e-06 0.13069999 4278190335
-0.04586659 -4.234797e-06 0.13059999 4278190335
-0.045525383 -4.2315546e-06 0.1305 4278190335
-0.045219291 -4.2315546e-06 0.1305 4278190335
-0.044913199 -4.2315546e-06 0.1305 4278190335
-0.044607107 -4.2315546e-06 0.1305 4278190335
-0.044301014 -4.2315546e-06 0.1305 4278190335
-0.043994922 -4.2315546e-06 0.1305 4278190335
