# .PCD v0.7 - Point Cloud Data file format
VERSION 0.7
FIELDS x y z rgb
SIZE 4 4 4 4
TYPE F F F U
COUNT 1 1 1 1
WIDTH 1023
HEIGHT 1
VIEWPOINT 0 0 0 1 0 0 0
POINTS 1023
DATA ascii
-0.058190927 -0.012371381 0.29279998 4278190335
-0.057366684 -0.012341804 0.29209998 4278190335
-0.05654572 -0.012312228 0.29139999 4278190335
-0.14098603 -0.016688878 0.41819999 4278190335
-0.14074165 -0.016776673 0.42039999 4278190335
-0.1404537 -0.016860476 0.42249998 4278190335
-0.14018892 -0.01694827 0.42469999 4278190335
-0.13994657 -0.017040055 0.42699999 4278190335
-0.13966091 -0.017127849 0.42919999 4278190335
-0.13939722 -0.017219635 0.43149999 4278190335
-0.13937932 -0.017343344 0.4346 4278190335
-0.13934688 -0.017467055 0.4377 4278190335
-0.1395527 -0.017622689 0.44159999 4278190335
-0.13955201 -0.01775438 0.44489998 4278190335
-0.13975379 -0.017914006 0.44889998 4278190335
-0.13975142 -0.018049689 0.45229998 4278190335
-0.13973309 -0.01818537 0.45569998 4278190335
-0.13994224 -0.018352978 0.45989999 4278190335
-0.14019208 -0.018528566 0.46429998 4278190335
-0.1401816 -0.018672228 0.46789998 4278190335
-0.13988671 -0.018779976 0.47059998 4278190335
-0.13904831 -0.018815892 0.47149998 4278190335
-0.138469 -0.018887723 0.47329998 4278190335
-0.13762005 -0.01892364 0.47419998 4278190335
-0.13705476 -0.018999463 0.4761 4278190335
-0.13645199 -0.019071294 0.4779 4278190335
-0.1358691 -0.019147115 0.47979999 4278190335
-0.12814748 -0.019689843 0.49339998 4278190335
-0.12724759 -0.01972975 0.49439999 4278190335
-0.12634298 -0.019769656 0.49539998 4278190335
-0.1254337 -0.019809563 0.4964 4278190335
-0.12451971 -0.01984947 0.49739999 4278190335
-0.12360103 -0.019889375 0.49839997 4278190335
-0.12243202 -0.019889375 0.49839997 4278190335
-0.12150632 -0.019929282 0.49939999 4278190335
-0.12033496 -0.019929282 0.49939999 4278190335
-0.11942607 -0.019973179 0.50049996 4278190335
-0.060621638 -0.011756441 0.29459998 4278190335
-0.059869617 -0.011744468 0.29429999 4278190335
-0.059098892 -0.011728506 0.29389998 4278190335
-0.058270421 -0.011700572 0.29319999 4278190335
-0.057504158 -0.011684609 0.29279998 4278190335
-0.056681555 -0.011656675 0.29209998 4278190335
-0.14051405 -0.015655391 0.41679999 4278190335
-0.14023948 -0.015734268 0.41889998 4278190335
-0.13998829 -0.015816903 0.42109999 4278190335
-0.13972679 -0.015899537 0.4233 4278190335
-0.13945495 -0.015982172 0.42549998 4278190335
-0.13943313 -0.016094854 0.4285 4278190335
-0.13913877 -0.016177488 0.43069997 4278190335
-0.13912275 -0.016293926 0.43379998 4278190335
-0.13934688 -0.016440416 0.4377 4278190335
-0.1395527 -0.016586903 0.44159999 4278190335
-0.13980296 -0.016740901 0.44569999 4278190335
-0.13975379 -0.016861096 0.44889998 4278190335
-0.1399986 -0.017018853 0.4531 4278190335
-0.13997839 -0.017146559 0.45649999 4278190335
-0.13994224 -0.017274268 0.45989999 4278190335
-0.13992032 -0.01740573 0.46339998 4278190335
-0.1401816 -0.017574754 0.46789998 4278190335
-0.13961917 -0.017642364 0.46969998 4278190335
-0.13904831 -0.017709974 0.47149998 4278190335
-0.138469 -0.017777583 0.47329998 4278190335
-0.13762005 -0.017811388 0.47419998 4278190335
-0.13679567 -0.01784895 0.4752 4278190335
-0.13619502 -0.01791656 0.477 4278190335
-0.13561425 -0.017987924 0.47889999 4278190335
-0.13502455 -0.018059289 0.48079997 4278190335
-0.13414745 -0.018093094 0.48169997 4278190335
-0.13329376 -0.018130656 0.48269999 4278190335
-0.13268179 -0.018202022 0.48459998 4278190335
-0.12993322 -0.018457435 0.49139997 4278190335
-0.12904271 -0.018494997 0.49239999 4278190335
-0.12814748 -0.018532557 0.49339998 4278190335
-0.12724759 -0.01857012 0.49439999 4278190335
-0.12634298 -0.01860768 0.49539998 4278190335
-0.1254337 -0.018645242 0.4964 4278190335
-0.12451971 -0.018682802 0.49739999 4278190335
-0.12360103 -0.018720362 0.49839997 4278190335
-0.12267768 -0.018757924 0.49939999 4278190335
-0.12177395 -0.01879924 0.50049996 4278190335
-0.12060001 -0.01879924 0.50049996 4278190335
-0.1196647 -0.018836802 0.50150001 4278190335
-0.11872467 -0.018874362 0.5025 4278190335
-0.061541565 -0.011106764 0.29569998 4278190335
-0.060847994 -0.011106764 0.29569998 4278190335
-0.060073052 -0.01109174 0.29530001 4278190335
-0.059239652 -0.011065447 0.29459998 4278190335
-0.058409538 -0.011039154 0.29389998 4278190335
-0.057582717 -0.011012862 0.29319999 4278190335
-0.056759175 -0.010986569 0.29249999 4278190335
-0.14027806 -0.014653125 0.4161 4278190335
-0.14000513 -0.014727077 0.41819999 4278190335
-0.13975559 -0.01480455 0.42039999 4278190335
-0.13946271 -0.014878503 0.42249998 4278190335
-0.13919276 -0.014955977 0.42469999 4278190335
-0.13894503 -0.015036972 0.42699999 4278190335
-0.13891265 -0.015142618 0.42999998 4278190335
-0.13912275 -0.015276437 0.43379998 4278190335
-0.13909218 -0.015385604 0.43689999 4278190335
-0.1395527 -0.015551117 0.44159999 4278190335
-0.13980296 -0.015695499 0.44569999 4278190335
-0.14003399 -0.015839882 0.44979998 4278190335
-0.1399986 -0.015956094 0.4531 4278190335
-0.13997839 -0.016075827 0.45649999 4278190335
-0.1402161 -0.016227253 0.46079999 4278190335
-0.13992032 -0.016318813 0.46339998 4278190335
-0.1401816 -0.016477281 0.46789998 4278190335
-0.13961917 -0.016540669 0.46969998 4278190335
-0.13878289 -0.016572364 0.47059998 4278190335
-0.13820569 -0.016635751 0.47239998 4278190335
-0.13735886 -0.016667444 0.47329998 4278190335
-0.13679567 -0.016734354 0.4752 4278190335
-0.13619502 -0.016797742 0.477 4278190335
-0.13533106 -0.016829437 0.4779 4278190335
-0.13474372 -0.016896345 0.47979999 4278190335
-0.13414745 -0.016963255 0.48169997 4278190335
-0.13329376 -0.01699847 0.48269999 4278190335
-0.13268179 -0.017065378 0.48459998 4278190335
-0.13178945 -0.017097073 0.48549998 4278190335
-0.13118891 -0.017167503 0.48749998 4278190335
-0.13031222 -0.01720272 0.4885 4278190335
-0.12940441 -0.017234413 0.4894 4278190335
-0.12878063 -0.017304843 0.49139997 4278190335
-0.12814748 -0.017375274 0.49339998 4278190335
-0.1269902 -0.017375274 0.49339998 4278190335
-0.12608795 -0.017410491 0.49439999 4278190335
-0.1254337 -0.017480921 0.4964 4278190335
-0.12451971 -0.017516136 0.49739999 4278190335
-0.12360103 -0.017551351 0.49839997 4278190335
-0.12267768 -0.017586567 0.49939999 4278190335
-0.12177395 -0.017625302 0.50049996 4278190335
-0.12084098 -0.017660519 0.50150001 4278190335
-0.1196647 -0.017660519 0.50150001 4278190335
-0.11898457 -0.017734472 0.5036 4278190335
-0.061832935 -0.010462493 0.29709998 4278190335
-0.061136078 -0.010462493 0.29709998 4278190335
-0.060296819 -0.010437842 0.29639998 4278190335
-0.059460845 -0.010413191 0.29569998 4278190335
-0.058548655 -0.010374454 0.29459998 4278190335
-0.05764164 -0.010335718 0.29350001 4278190335
-0.056817386 -0.010311066 0.29279998 4278190335
-0.14027806 -0.013677149 0.4161 4278190335
-0.14000513 -0.013746175 0.41819999 4278190335
-0.13975559 -0.013818489 0.42039999 4278190335
-0.13946271 -0.013887515 0.42249998 4278190335
-0.13919276 -0.01395983 0.42469999 4278190335
-0.13894503 -0.01403543 0.42699999 4278190335
-0.13891265 -0.014134039 0.42999998 4278190335
-0.13886619 -0.014232649 0.433 4278190335
-0.13909218 -0.014360841 0.43689999 4278190335
-0.1395527 -0.01451533 0.44159999 4278190335
-0.13980296 -0.014650096 0.44569999 4278190335
-0.13975379 -0.01475528 0.44889998 4278190335
-0.1399986 -0.014893333 0.4531 4278190335
-0.13997839 -0.015005091 0.45649999 4278190335
-0.13994224 -0.015116849 0.45989999 4278190335
-0.13992032 -0.015231892 0.46339998 4278190335
-0.13991196 -0.015350224 0.46699998 4278190335
-0.13935165 -0.01540939 0.46879998 4278190335
-0.13878289 -0.015468556 0.47059998 4278190335
-0.13794239 -0.015498139 0.47149998 4278190335
-0.13735886 -0.015557304 0.47329998 4278190335
-0.13650781 -0.015586887 0.47419998 4278190335
-0.13593805 -0.015649341 0.4761 4278190335
-0.13533106 -0.015708506 0.4779 4278190335
-0.13449097 -0.015741376 0.47889999 4278190335
-0.13389681 -0.015803829 0.48079997 4278190335
-0.13301761 -0.015833411 0.48169997 4278190335
-0.13240799 -0.015895864 0.48359999 4278190335
-0.13178945 -0.015958317 0.48549998 4278190335
-0.13091981 -0.015991187 0.48649999 4278190335
-0.13031222 -0.016056927 0.4885 4278190335
-0.12966882 -0.01611938 0.49039999 4278190335
-0.12878063 -0.016152248 0.49139997 4278190335
-0.12788777 -0.01618512 0.49239999 4278190335
-0.1269902 -0.016217988 0.49339998 4278190335
-0.12608795 -0.016250858 0.49439999 4278190335
-0.125181 -0.016283728 0.49539998 4278190335
-0.12451971 -0.016349468 0.49739999 4278190335
-0.12360103 -0.016382338 0.49839997 4278190335
-0.12267768 -0.016415209 0.49939999 4278190335
-0.12177395 -0.016451364 0.50049996 4278190335
-0.12084098 -0.016484234 0.50150001 4278190335
-0.1196647 -0.016484234 0.50150001 4278190335
-0.11898457 -0.016553262 0.5036 4278190335
-0.11780336 -0.016553262 0.5036 4278190335
-0.061444744 -0.0098149404 0.29859999 4278190335
-0.060662996 -0.009801792 0.29819998 4278190335
-0.059742361 -0.0097656352 0.29709998 4278190335
-0.05876727 -0.0097196177 0.29569998 4278190335
-0.057857666 -0.00968346 0.29459998 4278190335
-0.056895006 -0.0096374424 0.29319999 4278190335
-0.14027806 -0.012701173 0.4161 4278190335
-0.13977079 -0.012743908 0.41749999 4278190335
-0.13948964 -0.012808008 0.41959998 4278190335
-0.13946271 -0.012896529 0.42249998 4278190335
-0.13919276 -0.012963682 0.42469999 4278190335
-0.13894503 -0.013033888 0.42699999 4278190335
-0.13891265 -0.013125462 0.42999998 4278190335
-0.13886619 -0.013217035 0.433 4278190335
-0.13909218 -0.013336079 0.43689999 4278190335
-0.13929988 -0.013455125 0.44079998 4278190335
-0.13955201 -0.013580274 0.44489998 4278190335
-0.13950475 -0.013677953 0.4481 4278190335
-0.13947333 -0.013778682 0.45139998 4278190335
-0.13973309 -0.013909937 0.45569998 4278190335
-0.1396988 -0.01401372 0.45909998 4278190335
-0.13967878 -0.014120555 0.46259999 4278190335
-0.13937268 -0.014199918 0.46519998 4278190335
-0.13908412 -0.014282334 0.46789998 4278190335
-0.13851748 -0.014337277 0.46969998 4278190335
-0.13767909 -0.014364749 0.47059998 4278190335
-0.13709767 -0.014419693 0.47239998 4278190335
-0.13624872 -0.014447165 0.47329998 4278190335
-0.13568108 -0.014505162 0.4752 4278190335
-0.13507621 -0.014560105 0.477 4278190335
-0.13421014 -0.014587577 0.4779 4278190335
-0.13336769 -0.014618102 0.47889999 4278190335
-0.13276908 -0.014676097 0.48079997 4278190335
-0.13216159 -0.014734094 0.48269999 4278190335
-0.13154514 -0.014792089 0.48459998 4278190335
-0.13091981 -0.014850087 0.48649999 4278190335
-0.13004546 -0.014880611 0.48749998 4278190335
-0.12940441 -0.014938607 0.4894 4278190335
-0.12851857 -0.014969131 0.49039999 4278190335
-0.12762804 -0.014999655 0.49139997 4278190335
-0.1269902 -0.015060704 0.49339998 4278190335
-0.12583292 -0.015060704 0.49339998 4278190335
-0.125181 -0.015121752 0.49539998 4278190335
-0.12426937 -0.015152277 0.4964 4278190335
-0.12360103 -0.015213326 0.49839997 4278190335
-0.12267768 -0.015243851 0.49939999 4278190335
-0.12177395 -0.015277426 0.50049996 4278190335
-0.12084098 -0.015307952 0.50150001 4278190335
-0.1199033 -0.015338476 0.5025 4278190335
-0.11898457 -0.015372053 0.5036 4278190335
-0.11803728 -0.015402577 0.50459999 4278190335
-0.061671097 -0.0091481414 0.29969999 4278190335
-0.060805395 -0.0091237221 0.29889998 4278190335
-0.059883129 -0.009090146 0.2978 4278190335
-0.058906388 -0.0090474105 0.29639998 4278190335
-0.057936225 -0.0090046767 0.29499999 4278190335
-0.14004207 -0.011705473 0.4154 4278190335
-0.13977079 -0.011764647 0.41749999 4278190335
-0.13948964 -0.011823823 0.41959998 4278190335
-0.13946271 -0.011905542 0.42249998 4278190335
-0.13919276 -0.011967535 0.42469999 4278190335
-0.13894503 -0.012032347 0.42699999 4278190335
-0.13891265 -0.012116883 0.42999998 4278190335
-0.13886619 -0.012201419 0.433 4278190335
-0.13883749 -0.012288773 0.43609998 4278190335
-0.13929988 -0.012421214 0.44079998 4278190335
-0.13930109 -0.012514204 0.44409999 4278190335
-0.13925567 -0.012604376 0.44729999 4278190335
-0.13922615 -0.012697366 0.4506 4278190335
-0.13921182 -0.012793174 0.454 4278190335
-0.13918152 -0.012888982 0.45739999 4278190335
-0.13913529 -0.01298479 0.46079999 4278190335
-0.13910304 -0.013083415 0.46429998 4278190335
-0.13854906 -0.013134137 0.46609998 4278190335
-0.13798665 -0.013184859 0.46789998 4278190335
-0.13715248 -0.01321022 0.46879998 4278190335
-0.13657528 -0.013260942 0.47059998 4278190335
-0.13598964 -0.013311664 0.47239998 4278190335
-0.13539556 -0.013362385 0.47419998 4278190335
-0.13482134 -0.013415926 0.4761 4278190335
-0.13395739 -0.013441287 0.477 4278190335
-0.1330892 -0.013466648 0.4779 4278190335
-0.13276908 -0.013548366 0.48079997 4278190335
-0.13216159 -0.013601906 0.48269999 4278190335
-0.13154514 -0.013655445 0.48459998 4278190335
-0.1306507 -0.013680805 0.48549998 4278190335
-0.13004546 -0.013737164 0.48749998 4278190335
-0.12940441 -0.013790703 0.4894 4278190335
-0.12851857 -0.013818882 0.49039999 4278190335
-0.12736832 -0.013818882 0.49039999 4278190335
-0.12673283 -0.01387524 0.49239999 4278190335
-0.12608795 -0.013931598 0.49439999 4278190335
-0.125181 -0.013959776 0.49539998 4278190335
-0.12451971 -0.014016134 0.49739999 4278190335
-0.12360103 -0.014044312 0.49839997 4278190335
-0.12267768 -0.014072492 0.49939999 4278190335
-0.12177395 -0.014103487 0.50049996 4278190335
-0.12084098 -0.014131667 0.50150001 4278190335
-0.1199033 -0.014159846 0.5025 4278190335
-0.11898457 -0.014190842 0.5036 4278190335
-0.11803728 -0.014219021 0.50459999 4278190335
-0.061732829 -0.0084536392 0.29999998 4278190335
-0.06102917 -0.0084536392 0.29999998 4278190335
-0.060043991 -0.0084141884 0.29859999 4278190335
-0.059045505 -0.0083719203 0.29709998 4278190335
-0.057995148 -0.0083211996 0.29530001 4278190335
-0.14027806 -0.010749223 0.4161 4278190335
-0.14000513 -0.010803472 0.41819999 4278190335
-0.13975559 -0.010860305 0.42039999 4278190335
-0.13946271 -0.010914555 0.42249998 4278190335
-0.13919276 -0.010971389 0.42469999 4278190335
-0.13894503 -0.011030805 0.42699999 4278190335
-0.13891265 -0.011108304 0.42999998 4278190335
-0.13886619 -0.011185805 0.433 4278190335
-0.13883749 -0.011265888 0.43609998 4278190335
-0.13882586 -0.011348555 0.4393 4278190335
-0.13901879 -0.011449304 0.44319999 4278190335
-0.13875756 -0.011513887 0.44569999 4278190335
-0.13870089 -0.011596553 0.44889998 4278190335
-0.13869053 -0.011684387 0.45229998 4278190335
-0.13866423 -0.01177222 0.45569998 4278190335
-0.13835022 -0.011836803 0.45819998 4278190335
-0.1383241 -0.011927219 0.46169999 4278190335
-0.13801402 -0.011994385 0.46429998 4278190335
-0.13745582 -0.012040885 0.46609998 4278190335
-0.13688917 -0.012087385 0.46789998 4278190335
-0.13605289 -0.012110636 0.46879998 4278190335
-0.13547148 -0.012157136 0.47059998 4278190335
-0.1348816 -0.012203635 0.47239998 4278190335
-0.1342833 -0.012250135 0.47419998 4278190335
-0.13370463 -0.012299219 0.4761 4278190335
-0.13283856 -0.012322469 0.477 4278190335
-0.13224441 -0.012371551 0.47889999 4278190335
-0.13164136 -0.012420635 0.48079997 4278190335
-0.1310294 -0.012469718 0.48269999 4278190335
-0.1301394 -0.012492968 0.48359999 4278190335
-0.12951194 -0.012542051 0.48549998 4278190335
-0.12890202 -0.012593717 0.48749998 4278190335
-0.12802064 -0.012619551 0.4885 4278190335
-0.12736832 -0.012668634 0.49039999 4278190335
-0.12673283 -0.012720301 0.49239999 4278190335
-0.12583292 -0.012746134 0.49339998 4278190335
-0.125181 -0.0127978 0.49539998 4278190335
-0.12426937 -0.012823634 0.4964 4278190335
-0.12360103 -0.0128753 0.49839997 4278190335
-0.12267768 -0.012901134 0.49939999 4278190335
-0.12177395 -0.012929549 0.50049996 4278190335
-0.12084098 -0.012955384 0.50150001 4278190335
-0.1199033 -0.012981217 0.5025 4278190335
-0.11922084 -0.013035467 0.50459999 4278190335
-0.062602989 -0.0077706468 0.3008 4278190335
-0.061815143 -0.0077603133 0.30039999 4278190335
-0.06102917 -0.0077499798 0.29999998 4278190335
-0.060043991 -0.0077138133 0.29859999 4278190335
-0.059045505 -0.0076750633 0.29709998 4278190335
-0.057995148 -0.0076285643 0.29530001 4278190335
-0.14027806 -0.0097732469 0.4161 4278190335
-0.14000513 -0.0098225707 0.41819999 4278190335
-0.13998829 -0.0098906849 0.42109999 4278190335
-0.13972679 -0.0099423584 0.4233 4278190335
-0.13945495 -0.0099940309 0.42549998 4278190335
-0.13917281 -0.010045704 0.42769998 4278190335
-0.13891265 -0.010099726 0.42999998 4278190335
-0.13886619 -0.01017019 0.433 4278190335
-0.13883749 -0.010243 0.43609998 4278190335
-0.13882586 -0.010318162 0.4393 4278190335
-0.13851692 -0.010372184 0.44159999 4278190335
-0.13850848 -0.010449693 0.44489998 4278190335
-0.13845371 -0.010524854 0.4481 4278190335
-0.13816926 -0.010583574 0.4506 4278190335
-0.13814694 -0.010663432 0.454 4278190335
-0.13783692 -0.010722151 0.45649999 4278190335
-0.13754514 -0.010783219 0.45909998 4278190335
-0.13724117 -0.010844287 0.46169999 4278190335
-0.13665956 -0.010884216 0.46339998 4278190335
-0.13636257 -0.010947633 0.46609998 4278190335
-0.1355305 -0.010968772 0.46699998 4278190335
-0.13469422 -0.010989911 0.46789998 4278190335
-0.13411069 -0.011032189 0.46969998 4278190335
-0.13377358 -0.011095606 0.47239998 4278190335
-0.13317105 -0.011137884 0.47419998 4278190335
-0.13258792 -0.011182511 0.4761 4278190335
-0.13196827 -0.011224789 0.4779 4278190335
-0.13112116 -0.011248277 0.47889999 4278190335
-0.13051364 -0.011292903 0.48079997 4278190335
-0.12989721 -0.01133753 0.48269999 4278190335
-0.12927185 -0.011382156 0.48459998 4278190335
-0.1286376 -0.011426783 0.48649999 4278190335
-0.12802064 -0.011473759 0.4885 4278190335
-0.1271086 -0.011494897 0.4894 4278190335
-0.12647544 -0.011541872 0.49139997 4278190335
-0.12557788 -0.011565361 0.49239999 4278190335
-0.12492833 -0.011612336 0.49439999 4278190335
-0.12426937 -0.011659312 0.4964 4278190335
-0.12360103 -0.011706287 0.49839997 4278190335
-0.12267768 -0.011729775 0.49939999 4278190335
-0.12177395 -0.011755611 0.50049996 4278190335
-0.12084098 -0.0117791 0.50150001 4278190335
-0.1199033 -0.011802587 0.5025 4278190335
-0.063371666 -0.0070721568 0.30109999 4278190335
-0.062665425 -0.0070721568 0.30109999 4278190335
-0.061897453 -0.0070651108 0.3008 4278190335
-0.061110545 -0.0070557157 0.30039999 4278190335
-0.060043991 -0.0070134373 0.29859999 4278190335
-0.059125002 -0.0069876011 0.29749998 4278190335
-0.057995148 -0.0069359285 0.29530001 4278190335
-0.057030842 -0.0069030449 0.29389998 4278190335
-0.14051405 -0.0088120708 0.41679999 4278190335
-0.14023948 -0.0088564698 0.41889998 4278190335
-0.13998829 -0.0089029828 0.42109999 4278190335
-0.13972679 -0.0089494959 0.4233 4278190335
-0.13968438 -0.0090108076 0.4262 4278190335
-0.13943313 -0.0090594348 0.4285 4278190335
-0.13913877 -0.0091059469 0.43069997 4278190335
-0.13886619 -0.0091545749 0.433 4278190335
-0.13858281 -0.0092032021 0.43529999 4278190335
-0.13832024 -0.0092539433 0.4377 4278190335
-0.13826597 -0.0093194833 0.44079998 4278190335
-0.13797924 -0.0093702255 0.44319999 4278190335
-0.13771215 -0.0094230808 0.44569999 4278190335
-0.13764797 -0.0094907358 0.44889998 4278190335
-0.13735579 -0.0095435912 0.45139998 4278190335
-0.13708207 -0.0095985606 0.454 4278190335
-0.1367662 -0.0096514169 0.45649999 4278190335
-0.13646831 -0.0097063864 0.45909998 4278190335
-0.13615823 -0.0097613558 0.46169999 4278190335
-0.13557264 -0.0097972974 0.46339998 4278190335
-0.13500811 -0.0098353531 0.46519998 4278190335
-0.13443515 -0.0098734098 0.46699998 4278190335
-0.13385372 -0.0099114655 0.46879998 4278190335
-0.133009 -0.0099304933 0.46969998 4278190335
-0.13266554 -0.0099875769 0.47239998 4278190335
-0.1320588 -0.010025633 0.47419998 4278190335
-0.13147122 -0.010065804 0.4761 4278190335
-0.13084736 -0.01010386 0.4779 4278190335
-0.13024218 -0.01014403 0.47979999 4278190335
-0.12962809 -0.0101842 0.48169997 4278190335
-0.1290051 -0.01022437 0.48359999 4278190335
-0.12837319 -0.01026454 0.48549998 4278190335
-0.1274965 -0.010285683 0.48649999 4278190335
-0.12687485 -0.010327967 0.4885 4278190335
-0.12621807 -0.010368138 0.49039999 4278190335
-0.12557788 -0.010410422 0.49239999 4278190335
-0.12492833 -0.010452706 0.49439999 4278190335
-0.12401903 -0.010473848 0.49539998 4278190335
-0.12335304 -0.010516132 0.49739999 4278190335
-0.12243202 -0.010537274 0.49839997 4278190335
-0.12177395 -0.010581673 0.50049996 4278190335
-0.12084098 -0.010602816 0.50150001 4278190335
-0.1199033 -0.010623958 0.5025 4278190335
-0.06345585 -0.0063743745 0.30149999 4278190335
-0.062665425 -0.0063659176 0.30109999 4278190335
-0.061897453 -0.0063595753 0.3008 4278190335
-0.06102917 -0.0063426611 0.29999998 4278190335
-0.060043991 -0.0063130623 0.29859999 4278190335
-0.059125002 -0.0062898058 0.29749998 4278190335
-0.058073703 -0.0062517496 0.29569998 4278190335
-0.057030842 -0.0062136939 0.29389998 4278190335
-0.14075004 -0.0078476118 0.41749999 4278190335
-0.14074165 -0.0079021221 0.42039999 4278190335
-0.1404537 -0.0079415953 0.42249998 4278190335
-0.14018892 -0.0079829479 0.42469999 4278190335
-0.13968438 -0.0080111427 0.4262 4278190335
-0.13943313 -0.0080543747 0.4285 4278190335
-0.13913877 -0.0080957273 0.43069997 4278190335
-0.13886619 -0.0081389602 0.433 4278190335
-0.13835995 -0.0081690345 0.4346 4278190335
-0.13806742 -0.0082122674 0.43689999 4278190335
-0.13779548 -0.0082573798 0.4393 4278190335
-0.13748112 -0.0083006117 0.44159999 4278190335
-0.13721779 -0.0083476035 0.44409999 4278190335
-0.13691206 -0.0083927158 0.4465 4278190335
-0.13659507 -0.0084378272 0.44889998 4278190335
-0.13629702 -0.008484819 0.45139998 4278190335
-0.1360172 -0.0085336901 0.454 4278190335
-0.13569546 -0.0085806819 0.45649999 4278190335
-0.13539147 -0.008629553 0.45909998 4278190335
-0.134812 -0.0086615076 0.46079999 4278190335
-0.13448572 -0.0087103788 0.46339998 4278190335
-0.13391697 -0.0087442128 0.46519998 4278190335
-0.13333978 -0.0087780468 0.46699998 4278190335
-0.13275413 -0.0088118808 0.46879998 4278190335
-0.13216005 -0.0088457149 0.47059998 4278190335
-0.13155752 -0.0088795489 0.47239998 4278190335
-0.13094655 -0.0089133829 0.47419998 4278190335
-0.13035452 -0.0089490972 0.4761 4278190335
-0.12972642 -0.0089829313 0.4779 4278190335
-0.1291168 -0.0090186447 0.47979999 4278190335
-0.12849826 -0.0090543581 0.48169997 4278190335
-0.1278708 -0.0090900715 0.48359999 4278190335
-0.12723443 -0.009125785 0.48549998 4278190335
-0.12661512 -0.0091633787 0.48749998 4278190335
-0.12596069 -0.0091990931 0.4894 4278190335
-0.12532285 -0.0092366859 0.49139997 4278190335
-0.12442295 -0.0092554828 0.49239999 4278190335
-0.12376869 -0.0092930757 0.49439999 4278190335
-0.12310505 -0.0093306694 0.4964 4278190335
-0.12218638 -0.0093494654 0.49739999 4278190335
-0.12150632 -0.0093870591 0.49939999 4278190335
-0.12060001 -0.0094077354 0.50049996 4278190335
-0.064077906 -0.0056596785 0.30109999 4278190335
-0.06345585 -0.0056671975 0.30149999 4278190335
-0.062665425 -0.0056596785 0.30109999 4278190335
-0.061815143 -0.0056465208 0.30039999 4278190335
-0.06102917 -0.0056390022 0.29999998 4278190335
-0.060104314 -0.0056183259 0.29889998 4278190335
-0.059125002 -0.0055920104 0.29749998 4278190335
-0.057995148 -0.0055506583 0.29530001 4278190335
-0.056953225 -0.0055168243 0.29350001 4278190335
-0.14098603 -0.0068798675 0.41819999 4278190335
-0.140976 -0.0069275759 0.42109999 4278190335
-0.14071965 -0.0069637685 0.4233 4278190335
-0.14018892 -0.0069868001 0.42469999 4278190335
-0.13994657 -0.0070246379 0.42699999 4278190335
-0.13966091 -0.0070608305 0.42919999 4278190335
-0.13913877 -0.0070855068 0.43069997 4278190335
-0.13886619 -0.0071233446 0.433 4278190335
-0.13835995 -0.0071496665 0.4346 4278190335
-0.13781461 -0.0071743429 0.43609998 4278190335
-0.13729359 -0.0072006653 0.4377 4278190335
-0.13701414 -0.0072401478 0.44009998 4278190335
-0.13669251 -0.0072779851 0.44239998 4278190335
-0.13642144 -0.0073191132 0.44489998 4278190335
-0.1361082 -0.0073585957 0.44729999 4278190335
-0.13554215 -0.0073849177 0.44889998 4278190335
-0.13550788 -0.0074408515 0.45229998 4278190335
-0.13519013 -0.0074819792 0.45479998 4278190335
-0.13489014 -0.0075247525 0.45739999 4278190335
-0.13454869 -0.0075658802 0.45989999 4278190335
-0.13399237 -0.0075954925 0.46169999 4278190335
-0.1333988 -0.0076234592 0.46339998 4278190335
-0.13282584 -0.0076530711 0.46519998 4278190335
-0.13224441 -0.0076826834 0.46699998 4278190335
-0.13165455 -0.0077122953 0.46879998 4278190335
-0.13130689 -0.0077567133 0.47149998 4278190335
-0.13069801 -0.0077863256 0.47329998 4278190335
-0.1301081 -0.0078175832 0.4752 4278190335
-0.12948212 -0.0078471955 0.477 4278190335
-0.1288746 -0.0078784516 0.47889999 4278190335
-0.12825817 -0.0079097087 0.48079997 4278190335
-0.12763283 -0.0079409666 0.48269999 4278190335
-0.12699857 -0.0079722237 0.48459998 4278190335
-0.12635539 -0.0080034807 0.48649999 4278190335
-0.12572905 -0.0080363834 0.4885 4278190335
-0.12506782 -0.0080676405 0.49039999 4278190335
-0.12417026 -0.0080840914 0.49139997 4278190335
-0.12351835 -0.0081169931 0.49339998 4278190335
-0.12285705 -0.0081498958 0.49539998 4278190335
-0.12194073 -0.0081663476 0.4964 4278190335
-0.12101971 -0.0081827985 0.49739999 4278190335
-0.12033496 -0.0082157003 0.49939999 4278190335
-0.064077906 -0.0049534389 0.30109999 4278190335
-0.063371666 -0.0049534389 0.30109999 4278190335
-0.062665425 -0.0049534389 0.30109999 4278190335
-0.061815143 -0.0049419231 0.30039999 4278190335
-0.06102917 -0.0049353424 0.29999998 4278190335
-0.060043991 -0.0049123112 0.29859999 4278190335
-0.059045505 -0.004887634 0.29709998 4278190335
-0.057995148 -0.0048580226 0.29530001 4278190335
-0.056953225 -0.0048284107 0.29350001 4278190335
-0.14145799 -0.0059187147 0.41959998 4278190335
-0.14121035 -0.0059497473 0.42179999 4278190335
-0.14095235 -0.0059807794 0.42399999 4278190335
-0.14068405 -0.006011812 0.4262 4278190335
-0.140176 -0.0060329703 0.42769998 4278190335
-0.13992122 -0.0060654129 0.42999998 4278190335
-0.13939722 -0.0060865716 0.43149999 4278190335
-0.13886619 -0.0061077303 0.433 4278190335
-0.13835995 -0.0061302991 0.4346 4278190335
-0.1375618 -0.0061401729 0.43529999 4278190335
-0.13704266 -0.0061627417 0.43689999 4278190335
-0.13651602 -0.0061853109 0.43849999 4278190335
-0.13619815 -0.0062177535 0.44079998 4278190335
-0.13590017 -0.0062516071 0.44319999 4278190335
-0.13562134 -0.0062868712 0.44569999 4278190335
-0.13530061 -0.0063207247 0.4481 4278190335
-0.13499856 -0.0063559888 0.4506 4278190335
-0.1346848 -0.0063912529 0.4531 4278190335
-0.13438879 -0.0064279274 0.45569998 4278190335
-0.13405134 -0.0064631915 0.45819998 4278190335
-0.13346998 -0.0064871712 0.45989999 4278190335
-0.13316852 -0.0065252562 0.46259999 4278190335
-0.13256887 -0.0065492354 0.46429998 4278190335
-0.13198955 -0.0065746256 0.46609998 4278190335
-0.13140179 -0.0066000158 0.46789998 4278190335
-0.1308056 -0.006625406 0.46969998 4278190335
-0.13020097 -0.0066507962 0.47149998 4278190335
-0.12958789 -0.0066761859 0.47329998 4278190335
-0.12899351 -0.006702987 0.4752 4278190335
-0.12836331 -0.0067283772 0.477 4278190335
-0.12799141 -0.0067678727 0.47979999 4278190335
-0.12736841 -0.0067946729 0.48169997 4278190335
-0.12673651 -0.0068214741 0.48359999 4278190335
-0.12609567 -0.0068482747 0.48549998 4278190335
-0.12547168 -0.0068764859 0.48749998 4278190335
-0.12458327 -0.0068905917 0.4885 4278190335
-0.12391757 -0.0069173924 0.49039999 4278190335
-0.12326801 -0.0069456035 0.49239999 4278190335
-0.12236106 -0.0069597089 0.49339998 4278190335
-0.12144943 -0.0069738147 0.49439999 4278190335
-0.12077641 -0.0070020258 0.4964 4278190335
-0.064870209 -0.0042528422 0.30149999 4278190335
-0.064163029 -0.0042528422 0.30149999 4278190335
-0.063371666 -0.0042471997 0.30109999 4278190335
-0.062602989 -0.0042429683 0.3008 4278190335
-0.061815143 -0.0042373259 0.30039999 4278190335
-0.06088677 -0.0042218096 0.29929999 4278190335
-0.059963558 -0.0042062933 0.29819998 4278190335
-0.058985885 -0.0041865455 0.29679999 4278190335
-0.057995148 -0.0041653872 0.29530001 4278190335
-0.056953225 -0.0041399975 0.29350001 4278190335
-0.14196369 -0.00495217 0.42109999 4278190335
-0.14171252 -0.0049780426 0.4233 4278190335
-0.141451 -0.0050039142 0.42549998 4278190335
-0.14094812 -0.0050215544 0.42699999 4278190335
-0.14066762 -0.0050474266 0.42919999 4278190335
-0.13992122 -0.0050568348 0.42999998 4278190335
-0.13965566 -0.0050838832 0.4323 4278190335
-0.13886619 -0.0050921151 0.433 4278190335
-0.13835995 -0.0051109311 0.4346 4278190335
-0.1375618 -0.0051191631 0.43529999 4278190335
-0.13679172 -0.0051285713 0.43609998 4278190335
-0.13626696 -0.0051473877 0.4377 4278190335
-0.13598186 -0.0051756115 0.44009998 4278190335
-0.13565485 -0.0052026599 0.44239998 4278190335
-0.13537791 -0.0052320599 0.44489998 4278190335
-0.1348175 -0.0052508763 0.4465 4278190335
-0.13448925 -0.0052791 0.44889998 4278190335
-0.13444699 -0.0053190845 0.45229998 4278190335
-0.13412337 -0.0053484845 0.45479998 4278190335
-0.13381729 -0.0053790612 0.45739999 4278190335
-0.13323781 -0.005399053 0.45909998 4278190335
-0.13265035 -0.0054190452 0.46079999 4278190335
-0.1323119 -0.0054496215 0.46339998 4278190335
-0.13147983 -0.0054602055 0.46429998 4278190335
-0.13114905 -0.0054919575 0.46699998 4278190335
-0.13055496 -0.0055131256 0.46879998 4278190335
-0.12995243 -0.0055342941 0.47059998 4278190335
-0.12934147 -0.0055554621 0.47239998 4278190335
-0.12872206 -0.0055766301 0.47419998 4278190335
-0.12812111 -0.0055989744 0.4761 4278190335
-0.12748457 -0.0056201429 0.4779 4278190335
-0.12686603 -0.0056424867 0.47979999 4278190335
-0.12650064 -0.0056765908 0.48269999 4278190335
-0.12586193 -0.0056989351 0.48459998 4278190335
-0.12521429 -0.0057212794 0.48649999 4278190335
-0.12432823 -0.0057330392 0.48749998 4278190335
-0.12343747 -0.0057447995 0.4885 4278190335
-0.12276732 -0.0057671438 0.49039999 4278190335
-0.12211307 -0.0057906639 0.49239999 4278190335
-0.12095813 -0.0057906639 0.49239999 4278190335
-0.065577388 -0.0035456645 0.30149999 4278190335
-0.064870209 -0.0035456645 0.30149999 4278190335
-0.064077906 -0.0035409604 0.30109999 4278190335
-0.063308522 -0.0035374323 0.3008 4278190335
-0.062519737 -0.0035327282 0.30039999 4278190335
-0.061671097 -0.0035244962 0.29969999 4278190335
-0.060744368 -0.0035115601 0.29859999 4278190335
-0.059822798 -0.0034986241 0.29749998 4278190335
-0.058826897 -0.0034809841 0.296 4278190335
-0.057798751 -0.0034609917 0.29429999 4278190335
-0.056817386 -0.0034433515 0.29279998 4278190335
-0.14243565 -0.0039776471 0.42249998 4278190335
-0.1421812 -0.0039983592 0.42469999 4278190335
-0.14194965 -0.0040200129 0.42699999 4278190335
-0.14144325 -0.0040341346 0.4285 4278190335
-0.1409298 -0.0040482562 0.42999998 4278190335
-0.14040932 -0.0040623783 0.43149999 4278190335
-0.13965566 -0.0040699099 0.4323 4278190335
-0.13912275 -0.0040840316 0.43379998 4278190335
-0.13835995 -0.0040915632 0.4346 4278190335
-0.1375618 -0.0040981537 0.43529999 4278190335
-0.13679172 -0.0041056848 0.43609998 4278190335
-0.13626696 -0.0041207485 0.4377 4278190335
-0.13598186 -0.0041433433 0.44009998 4278190335
-0.13565485 -0.0041649966 0.44239998 4278190335
-0.13513449 -0.0041810013 0.44409999 4278190335
-0.1348175 -0.0042035966 0.4465 4278190335
-0.13448925 -0.0042261914 0.44889998 4278190335
-0.13417947 -0.0042497278 0.45139998 4278190335
-0.13388745 -0.0042742058 0.454 4278190335
-0.13381729 -0.0043062149 0.45739999 4278190335
-0.13323781 -0.0043222196 0.45909998 4278190335
-0.13265035 -0.0043382244 0.46079999 4278190335
-0.13208348 -0.0043551708 0.46259999 4278190335
-0.13147983 -0.0043711751 0.46429998 4278190335
-0.1308963 -0.0043881214 0.46609998 4278190335
-0.13030432 -0.0044050678 0.46789998 4278190335
-0.12970391 -0.0044220141 0.46969998 4278190335
-0.12909506 -0.00443896 0.47149998 4278190335
-0.12847775 -0.0044559063 0.47329998 4278190335
-0.12787892 -0.0044737943 0.4752 4278190335
-0.12724449 -0.0044907401 0.477 4278190335
-0.12662806 -0.004508628 0.47889999 4278190335
-0.12623857 -0.0045349887 0.48169997 4278190335
-0.12536845 -0.0045444029 0.48269999 4278190335
-0.12472527 -0.0045622909 0.48459998 4278190335
-0.1240732 -0.0045801783 0.48649999 4278190335
-0.12318478 -0.004589593 0.48749998 4278190335
-0.12251699 -0.004607481 0.4894 4278190335
-0.12136909 -0.004607481 0.4894 4278190335
-0.12046683 -0.0046168952 0.49039999 4278190335
-0.065577388 -0.0028384868 0.30149999 4278190335
-0.064784139 -0.0028347208 0.30109999 4278190335
-0.064014062 -0.0028318965 0.3008 4278190335
-0.063224338 -0.0028281307 0.30039999 4278190335
-0.062436488 -0.0028243647 0.29999998 4278190335
-0.061506476 -0.0028140089 0.29889998 4278190335
-0.060662996 -0.0028074186 0.29819998 4278190335
-0.059682038 -0.0027942383 0.29679999 4278190335
-0.05868778 -0.0027801166 0.29530001 4278190335
-0.057720192 -0.0027669361 0.29389998 4278190335
-0.056759175 -0.0027537558 0.29249999 4278190335
-0.14317735 -0.0030022122 0.42469999 4278190335
-0.14268339 -0.0030128157 0.4262 4278190335
-0.14244831 -0.0030290745 0.4285 4278190335
-0.14193837 -0.0030396779 0.42999998 4278190335
-0.14115922 -0.0030446262 0.43069997 4278190335
-0.14066964 -0.0030559369 0.4323 4278190335
-0.1398818 -0.003060885 0.433 4278190335
-0.13937932 -0.0030721955 0.4346 4278190335
-0.13858281 -0.0030771438 0.43529999 4278190335
-0.13781461 -0.0030827988 0.43609998 4278190335
-0.13704266 -0.0030884543 0.43689999 4278190335
-0.13651602 -0.0030997647 0.43849999 4278190335
-0.13598186 -0.0031110749 0.44009998 4278190335
-0.13565485 -0.0031273337 0.44239998 4278190335
-0.13537791 -0.0031450063 0.44489998 4278190335
-0.1348175 -0.0031563169 0.4465 4278190335
-0.13448925 -0.0031732824 0.44889998 4278190335
-0.13444699 -0.003197317 0.45229998 4278190335
-0.13412337 -0.0032149896 0.45479998 4278190335
-0.13355398 -0.0032270069 0.45649999 4278190335
-0.13323781 -0.0032453863 0.45909998 4278190335
-0.13265035 -0.0032574038 0.46079999 4278190335
-0.13208348 -0.003270128 0.46259999 4278190335
-0.13147983 -0.0032821451 0.46429998 4278190335
-0.13064355 -0.0032885072 0.46519998 4278190335
-0.13005368 -0.0033012317 0.46699998 4278190335
-0.12945537 -0.0033139559 0.46879998 4278190335
-0.12884864 -0.00332668 0.47059998 4278190335
-0.12823345 -0.0033394042 0.47239998 4278190335
-0.1276098 -0.0033521284 0.47419998 4278190335
-0.1270044 -0.0033655597 0.4761 4278190335
-0.12636364 -0.0033782839 0.4779 4278190335
-0.12574063 -0.003391715 0.47979999 4278190335
-0.12510872 -0.0034051461 0.48169997 4278190335
-0.1244679 -0.0034185774 0.48359999 4278190335
-0.12358864 -0.0034256463 0.48459998 4278190335
-0.1226794 -0.0034320084 0.48549998 4278190335
-0.12204134 -0.0034461464 0.48749998 4278190335
-0.12089789 -0.0034461464 0.48749998 4278190335
-0.06549038 -0.0021284814 0.30109999 4278190335
-0.064784139 -0.0021284814 0.30109999 4278190335
-0.064014062 -0.0021263608 0.3008 4278190335
-0.063140146 -0.0021207056 0.29999998 4278190335
-0.062290806 -0.0021157572 0.29929999 4278190335
-0.06136243 -0.0021079811 0.29819998 4278190335
-0.060520593 -0.002103033 0.29749998 4278190335
-0.059601605 -0.0020952569 0.29639998 4278190335
-0.058628153 -0.0020853605 0.29499999 4278190335
-0.05764164 -0.0020747571 0.29350001 4278190335
-0.056681555 -0.0020648602 0.29209998 4278190335
-0.14368303 -0.0020131506 0.4262 4278190335
-0.14345337 -0.0020240145 0.4285 4278190335
-0.14294696 -0.0020310997 0.42999998 4278190335
-0.14243351 -0.002038185 0.43149999 4278190335
-0.14168362 -0.0020419639 0.4323 4278190335
-0.14089742 -0.0020452703 0.433 4278190335
-0.14014025 -0.0020490489 0.43379998 4278190335
-0.13960382 -0.0020561342 0.43529999 4278190335
-0.13883749 -0.002059913 0.43609998 4278190335
-0.13806742 -0.0020636918 0.43689999 4278190335
-0.13729359 -0.0020674707 0.4377 4278190335
-0.13676508 -0.0020750281 0.4393 4278190335
-0.13644534 -0.0020858923 0.44159999 4278190335
-0.13590017 -0.0020934497 0.44319999 4278190335
-0.13562134 -0.0021052584 0.44569999 4278190335
-0.13505904 -0.0021128161 0.44729999 4278190335
-0.13475889 -0.0021246248 0.44979998 4278190335
-0.13444699 -0.0021364335 0.45229998 4278190335
-0.13412337 -0.0021482422 0.45479998 4278190335
-0.13381729 -0.0021605233 0.45739999 4278190335
-0.13323781 -0.0021685532 0.45909998 4278190335
-0.13265035 -0.0021765833 0.46079999 4278190335
-0.13208348 -0.0021850856 0.46259999 4278190335
-0.13147983 -0.0021931154 0.46429998 4278190335
-0.13064355 -0.0021973664 0.46519998 4278190335
-0.13005368 -0.0022058687 0.46699998 4278190335
-0.12945537 -0.002214371 0.46879998 4278190335
-0.12884864 -0.0022228733 0.47059998 4278190335
-0.12823345 -0.0022313755 0.47239998 4278190335
-0.1276098 -0.0022398778 0.47419998 4278190335
-0.12676431 -0.0022446015 0.4752 4278190335
-0.12636364 -0.0022573548 0.4779 4278190335
-0.12574063 -0.0022663295 0.47979999 4278190335
-0.12487497 -0.0022710529 0.48079997 4278190335
-0.12423626 -0.0022800276 0.48269999 4278190335
-0.1233336 -0.0022842786 0.48359999 4278190335
-0.12245199 -0.0022890021 0.48459998 4278190335
-0.121791 -0.0022979768 0.48649999 4278190335
-0.12089789 -0.0023027002 0.48749998 4278190335
-0.065251127 -0.0014170463 0.29999998 4278190335
-0.064547464 -0.0014170463 0.29999998 4278190335
-0.063779965 -0.0014156293 0.29969999 4278190335
-0.062908635 -0.0014118504 0.29889998 4278190335
-0.062145121 -0.0014104334 0.29859999 4278190335
-0.061218388 -0.0014052376 0.29749998 4278190335
-0.060296819 -0.0014000417 0.29639998 4278190335
-0.059380416 -0.001394846 0.29530001 4278190335
-0.058489036 -0.0013901225 0.29429999 4278190335
-0.057582717 -0.0013849266 0.29319999 4278190335
-0.05662334 -0.0013783138 0.29179999 4278190335
-0.1446944 -0.0010206191 0.42919999 4278190335
-0.14418988 -0.0010241859 0.43069997 4278190335
-0.14371157 -0.0010279907 0.4323 4278190335
-0.14292866 -0.0010296553 0.433 4278190335
-0.14217523 -0.0010315577 0.43379998 4278190335
-0.14141805 -0.00103346 0.4346 4278190335
-0.14062482 -0.0010351246 0.43529999 4278190335
-0.13986038 -0.001037027 0.43609998 4278190335
-0.13909218 -0.0010389293 0.43689999 4278190335
-0.13857305 -0.001042734 0.43849999 4278190335
-0.13779548 -0.0010446365 0.4393 4278190335
-0.13723207 -0.0010482033 0.44079998 4278190335
-0.1369397 -0.0010539105 0.44319999 4278190335
-0.13642144 -0.001057953 0.44489998 4278190335
-0.1361082 -0.0010636601 0.44729999 4278190335
-0.13554215 -0.0010674648 0.44889998 4278190335
-0.13523825 -0.0010734097 0.45139998 4278190335
-0.13495232 -0.0010795924 0.454 4278190335
-0.13462472 -0.0010855373 0.45649999 4278190335
-0.13405134 -0.0010895798 0.45819998 4278190335
-0.13346998 -0.0010936223 0.45989999 4278190335
-0.13290943 -0.0010979027 0.46169999 4278190335
-0.1323119 -0.0011019452 0.46339998 4278190335
-0.13147983 -0.0011040854 0.46429998 4278190335
-0.1308963 -0.0011083656 0.46609998 4278190335
-0.13005368 -0.0011105058 0.46699998 4278190335
-0.12945537 -0.0011147861 0.46879998 4278190335
-0.12884864 -0.0011190665 0.47059998 4278190335
-0.12798914 -0.0011212067 0.47149998 4278190335
-0.12736762 -0.0011254869 0.47329998 4278190335
-0.12676431 -0.0011300051 0.4752 4278190335
-0.12612566 -0.0011342855 0.477 4278190335
-0.12550478 -0.0011388035 0.47889999 4278190335
-0.12487497 -0.0011433216 0.48079997 4278190335
-0.12397888 -0.0011454618 0.48169997 4278190335
-0.12310407 -0.0011478397 0.48269999 4278190335
-0.12245199 -0.0011523579 0.48459998 4278190335
-0.12154065 -0.001154498 0.48549998 4278190335
-0.1206499 -0.001156876 0.48649999 4278190335
-0.1195088 -0.001156876 0.48649999 4278190335
-0.064246245 -0.00071005791 0.29859999 4278190335
-0.063375622 -0.00070815557 0.2978 4278190335
-0.062613979 -0.00070744212 0.29749998 4278190335
-0.061832935 -0.00070649094 0.29709998 4278190335
-0.060909729 -0.00070387527 0.296 4278190335
-0.060012016 -0.00070149725 0.29499999 4278190335
-0.059179328 -0.00069983269 0.29429999 4278190335
-0.057445243 -0.00069555239 0.29249999 4278190335
-0.05662334 -0.00069388782 0.29179999 4278190335
-0.1454698 -1.3991691e-05 0.43149999 4278190335
-0.1452277 -1.4066271e-05 0.43379998 4278190335
-0.14447616 -1.4092211e-05 0.4346 4278190335
-0.14368786 -1.4114909e-05 0.43529999 4278190335
-0.14292903 -1.4140849e-05 0.43609998 4278190335
-0.14190616 -1.4140849e-05 0.43609998 4278190335
-0.14114171 -1.4166791e-05 0.43689999 4278190335
-0.14037351 -1.4192731e-05 0.4377 4278190335
-0.13960156 -1.4218671e-05 0.43849999 4278190335
-0.13907868 -1.4270552e-05 0.44009998 4278190335
-0.13826597 -1.429325e-05 0.44079998 4278190335
-0.13773018 -1.4345132e-05 0.44239998 4278190335
-0.13746497 -1.4426196e-05 0.44489998 4278190335
-0.13715737 -1.4504018e-05 0.44729999 4278190335
-0.13659507 -1.4555899e-05 0.44889998 4278190335
-0.13629702 -1.4636963e-05 0.45139998 4278190335
-0.1360172 -1.472127e-05 0.454 4278190335
-0.13545765 -1.4776393e-05 0.45569998 4278190335
-0.13489014 -1.4831518e-05 0.45739999 4278190335
-0.13454869 -1.4912582e-05 0.45989999 4278190335
-0.13399237 -1.4970948e-05 0.46169999 4278190335
-0.13316852 -1.5000131e-05 0.46259999 4278190335
-0.13256887 -1.5055254e-05 0.46429998 4278190335
-0.13173468 -1.5084437e-05 0.46519998 4278190335
-0.1308963 -1.511362e-05 0.46609998 4278190335
-0.13030432 -1.5171987e-05 0.46789998 4278190335
-0.12945537 -1.520117e-05 0.46879998 4278190335
-0.12884864 -1.5259537e-05 0.47059998 4278190335
-0.12798914 -1.5288719e-05 0.47149998 4278190335
-0.12736762 -1.5347086e-05 0.47329998 4278190335
-0.12676431 -1.5408696e-05 0.4752 4278190335
-0.12612566 -1.5467062e-05 0.477 4278190335
-0.12550478 -1.5528671e-05 0.47889999 4278190335
-0.12461525 -1.5557853e-05 0.47979999 4278190335
-0.12397888 -1.5619462e-05 0.48169997 4278190335
-0.12310407 -1.5651887e-05 0.48269999 4278190335
-0.1221993 -1.5681071e-05 0.48359999 4278190335
-0.12131535 -1.5713496e-05 0.48459998 4278190335
-0.1204019 -1.5742678e-05 0.48549998 4278190335
-0.1195088 -1.5775106e-05 0.48649999 4278190335
-0.11836769 -1.5775106e-05 0.48649999 4278190335
-0.063226648 -9.6336762e-06 0.29709998 4278190335
-0.062382467 -9.6109789e-06 0.29639998 4278190335
-0.061541565 -9.5882806e-06 0.29569998 4278190335
-0.059788242 -9.5299147e-06 0.29389998 4278190335
-0.058958132 -9.5072164e-06 0.29319999 4278190335
-0.058131307 -9.4845182e-06 0.29249999 4278190335
-0.057229206 -9.4488505e-06 0.29139999 4278190335
-0.056409888 -9.4261522e-06 0.29069999 4278190335
-0.14702056 0.0010087452 0.43609998 4278190335
-0.14626552 0.0010105957 0.43689999 4278190335
-0.14550671 0.0010124462 0.4377 4278190335
-0.14448008 0.0010124462 0.4377 4278190335
-0.14371562 0.0010142967 0.43849999 4278190335
-0.14268711 0.0010142967 0.43849999 4278190335
-0.14191703 0.0010161472 0.4393 4278190335
-0.14088665 0.0010161472 0.4393 4278190335
-0.14011094 0.0010179976 0.44009998 4278190335
-0.1395527 0.0010214674 0.44159999 4278190335
-0.13901879 0.0010251683 0.44319999 4278190335
-0.13850848 0.0010291005 0.44489998 4278190335
-0.13795935 0.0010328016 0.4465 4278190335
-0.13764797 0.001038353 0.44889998 4278190335
-0.13735579 0.0010441358 0.45139998 4278190335
-0.13681032 0.0010480681 0.4531 4278190335
-0.13652651 0.0010540821 0.45569998 4278190335
-0.13596298 0.0010580143 0.45739999 4278190335
-0.13539147 0.0010619466 0.45909998 4278190335
-0.134812 0.0010658789 0.46079999 4278190335
-0.13425356 0.0010700425 0.46259999 4278190335
-0.1333988 0.001071893 0.46339998 4278190335
-0.13256887 0.0010739748 0.46429998 4278190335
-0.13198955 0.0010781384 0.46609998 4278190335
-0.13114905 0.0010802202 0.46699998 4278190335
-0.13055496 0.0010843838 0.46879998 4278190335
-0.12970391 0.0010864655 0.46969998 4278190335
-0.12884864 0.0010885474 0.47059998 4278190335
-0.12823345 0.0010927109 0.47239998 4278190335
-0.12736762 0.0010947927 0.47329998 4278190335
-0.12676431 0.0010991876 0.4752 4278190335
-0.12612566 0.0011033512 0.477 4278190335
-0.12550478 0.0011077462 0.47889999 4278190335
-0.12461525 0.0011098279 0.47979999 4278190335
-0.12397888 0.0011142228 0.48169997 4278190335
-0.12310407 0.001116536 0.48269999 4278190335
-0.12245199 0.0011209308 0.48459998 4278190335
-0.12131535 0.0011209308 0.48459998 4278190335
-0.1204019 0.0011230126 0.48549998 4278190335
-0.1195088 0.0011253258 0.48649999 4278190335
-0.11861099 0.0011276389 0.48749998 4278190335
-0.062235139 0.00068398524 0.29569998 4278190335
-0.061312631 0.00068144081 0.29459998 4278190335
-0.059645843 0.00067820249 0.29319999 4278190335
-0.058817375 0.00067658332 0.29249999 4278190335
-0.05799219 0.00067496416 0.29179999 4278190335
-0.05717029 0.00067334494 0.2911 4278190335
-0.056409888 0.00067241973 0.29069999 4278190335
-0.14809938 0.002046539 0.4393 4278190335
-0.14733683 0.0020502657 0.44009998 4278190335
-0.14653726 0.0020535267 0.44079998 4278190335
-0.14550334 0.0020535267 0.44079998 4278190335
-0.14446944 0.0020535267 0.44079998 4278190335
-0.14343552 0.0020535267 0.44079998 4278190335
-0.14240161 0.0020535267 0.44079998 4278190335
-0.14162427 0.0020572536 0.44159999 4278190335
-0.14084317 0.0020609805 0.44239998 4278190335
-0.14034274 0.0020689003 0.44409999 4278190335
-0.13955201 0.0020726272 0.44489998 4278190335
-0.13925567 0.002083808 0.44729999 4278190335
-0.13870089 0.0020912618 0.44889998 4278190335
-0.13841456 0.0021029082 0.45139998 4278190335
-0.13787308 0.0021108279 0.4531 4278190335
-0.13732362 0.0021187477 0.45479998 4278190335
-0.13703583 0.0021308602 0.45739999 4278190335
-0.13646831 0.0021387797 0.45909998 4278190335
-0.13589281 0.0021466995 0.46079999 4278190335
-0.1353386 0.0021550851 0.46259999 4278190335
-0.13448572 0.0021588118 0.46339998 4278190335
-0.13365789 0.0021630046 0.46429998 4278190335
-0.13308281 0.0021713902 0.46609998 4278190335
-0.13224441 0.002175583 0.46699998 4278190335
-0.13140179 0.0021797759 0.46789998 4278190335
-0.13055496 0.0021839684 0.46879998 4278190335
-0.12995243 0.0021923541 0.47059998 4278190335
-0.12909506 0.0021965469 0.47149998 4278190335
-0.12823345 0.0022007397 0.47239998 4278190335
-0.1276098 0.0022091251 0.47419998 4278190335
-0.1270044 0.0022179766 0.4761 4278190335
-0.12612566 0.0022221694 0.477 4278190335
-0.12550478 0.0022310207 0.47889999 4278190335
-0.12461525 0.0022352135 0.47979999 4278190335
-0.12397888 0.0022440648 0.48169997 4278190335
-0.12310407 0.0022487235 0.48269999 4278190335
-0.12245199 0.002257575 0.48459998 4278190335
-0.12131535 0.002257575 0.48459998 4278190335
-0.1206499 0.0022664266 0.48649999 4278190335
-0.11975444 0.002271085 0.48749998 4278190335
-0.1188543 0.0022757438 0.4885 4278190335
-0.061940487 0.0013710366 0.29429999 4278190335
-0.061166946 0.0013691731 0.29389998 4278190335
-0.060333554 0.001365912 0.29319999 4278190335
-0.059503444 0.001362651 0.29249999 4278190335
-0.058676615 0.00135939 0.29179999 4278190335
-0.057912692 0.0013575265 0.29139999 4278190335
-0.057091732 0.0013542655 0.29069999 4278190335
-0.056351673 0.0013528679 0.2904 4278190335
-0.14941417 0.0031042469 0.44319999 4278190335
-0.14837465 0.0031042469 0.44319999 4278190335
-0.1476343 0.0031105508 0.44409999 4278190335
-0.14629556 0.0031042469 0.44319999 4278190335
-0.14525603 0.0031042469 0.44319999 4278190335
-0.14421648 0.0031042469 0.44319999 4278190335
-0.14317694 0.0031042469 0.44319999 4278190335
-0.14242604 0.0031105508 0.44409999 4278190335
-0.14163907 0.0031161539 0.44489998 4278190335
-0.14110118 0.0031273607 0.4465 4278190335
-0.14030483 0.003132964 0.44729999 4278190335
-0.13975379 0.0031441706 0.44889998 4278190335
-0.13947333 0.0031616811 0.45139998 4278190335
-0.13893583 0.0031735883 0.4531 4278190335
-0.13839036 0.0031854953 0.45479998 4278190335
-0.13810867 0.0032037061 0.45739999 4278190335
-0.1372755 0.0032093094 0.45819998 4278190335
-0.13670611 0.0032212166 0.45989999 4278190335
-0.13615823 0.0032338242 0.46169999 4278190335
-0.13557264 0.0032457311 0.46339998 4278190335
-0.13474692 0.0032520348 0.46429998 4278190335
-0.13391697 0.0032583384 0.46519998 4278190335
-0.13308281 0.0032646423 0.46609998 4278190335
-0.13224441 0.003270946 0.46699998 4278190335
-0.13165455 0.0032835535 0.46879998 4278190335
-0.1308056 0.0032898572 0.46969998 4278190335
-0.12995243 0.0032961611 0.47059998 4278190335
-0.12934147 0.0033087686 0.47239998 4278190335
