# .PCD v0.7 - Point Cloud Data file format
VERSION 0.7
FIELDS x y z
SIZE 4 4 4
TYPE F F F
COUNT 1 1 1
WIDTH 1259
HEIGHT 1
VIEWPOINT 0 0 0 1 0 0 0
POINTS 1259
DATA ascii
0.03307661 -0.0058031953 0.068700001
0.033189368 -0.0057947482 0.068599999
0.03335027 -0.0057947482 0.068599999
0.033511173 -0.0057947482 0.068599999
0.033622991 -0.0057863006 0.068499997
0.03373434 -0.0057778535 0.068399996
0.033894774 -0.0057778535 0.068399996
0.034005422 -0.0057694069 0.068300001
0.034165625 -0.0057694069 0.068300001
0.034275565 -0.0057609593 0.0682
0.034435529 -0.0057609593 0.0682
0.034595497 -0.0057609593 0.0682
0.034755457 -0.0057609593 0.0682
0.034915425 -0.0057609593 0.0682
0.035075389 -0.0057609593 0.0682
0.035235357 -0.0057609593 0.0682
0.035395321 -0.0057609593 0.0682
0.035555288 -0.0057609593 0.0682
0.035715252 -0.0057609593 0.0682
0.035875216 -0.0057609593 0.0682
0.03608802 -0.0057694069 0.068300001
0.036248222 -0.0057694069 0.068300001
0.036408421 -0.0057694069 0.068300001
0.036622159 -0.0057778535 0.068399996
0.036782593 -0.0057778535 0.068399996
0.036943026 -0.0057778535 0.068399996
0.037103459 -0.0057778535 0.068399996
0.037318379 -0.0057863006 0.068499997
0.037479043 -0.0057863006 0.068499997
0.037639715 -0.0057863006 0.068499997
0.037855566 -0.0057947482 0.068599999
0.038016472 -0.0057947482 0.068599999
0.038177371 -0.0057947482 0.068599999
0.038338277 -0.0057947482 0.068599999
0.038555302 -0.0058031953 0.068700001
0.038716443 -0.0058031953 0.068700001
0.038877577 -0.0058031953 0.068700001
0.039095536 -0.0058116419 0.068799995
0.039256912 -0.0058116419 0.068799995
0.039475575 -0.005820089 0.068899997
0.039694715 -0.0058285366 0.068999998
0.039914317 -0.0058369837 0.0691
0.040134396 -0.0058454312 0.069200002
0.040354934 -0.0058538779 0.069299996
0.040517479 -0.0058538779 0.069299996
0.040738728 -0.005862325 0.069399998
0.040960446 -0.0058707725 0.069499999
0.04118263 -0.0058792196 0.069600001
-0.03406794 -0.0057980963 0.070599996
-0.033902347 -0.0057980963 0.070599996
-0.03373675 -0.0057980963 0.070599996
-0.033571158 -0.0057980963 0.070599996
-0.033239968 -0.0057980963 0.070599996
-0.033074375 -0.0057980963 0.070599996
-0.032908779 -0.0057980963 0.070599996
-0.032743186 -0.0057980963 0.070599996
-0.032577589 -0.0057980963 0.070599996
-0.032411996 -0.0057980963 0.070599996
-0.032292079 -0.0058063092 0.070699997
-0.032126248 -0.0058063092 0.070699997
-0.032005627 -0.0058145216 0.070799999
-0.031884536 -0.0058227344 0.070900001
-0.031762972 -0.0058309464 0.070999995
-0.031640939 -0.0058391592 0.071099997
-0.031518441 -0.0058473721 0.071199998
-0.031395473 -0.005855585 0.0713
-0.031272035 -0.0058637974 0.071400002
-0.031148126 -0.0058720098 0.071499996
-0.031023752 -0.0058802222 0.071599998
-0.030898906 -0.0058884351 0.071699999
-0.030730732 -0.0058884351 0.071699999
-0.030605184 -0.0058966479 0.071800001
-0.030436775 -0.0058966479 0.071800001
-0.030268366 -0.0058966479 0.071800001
-0.030141875 -0.0059048599 0.071899995
-0.029973231 -0.0059048599 0.071899995
-0.029804587 -0.0059048599 0.071899995
-0.029635943 -0.0059048599 0.071899995
-0.0294673 -0.0059048599 0.071899995
-0.029339407 -0.0059130727 0.071999997
-0.029130014 -0.0059048599 0.071899995
-0.029001649 -0.0059130727 0.071999997
-0.028832771 -0.0059130727 0.071999997
-0.028663896 -0.0059130727 0.071999997
-0.028495017 -0.0059130727 0.071999997
-0.028326139 -0.0059130727 0.071999997
-0.02815726 -0.0059130727 0.071999997
-0.027988382 -0.0059130727 0.071999997
-0.023379549 -0.0059869862 0.072899997
-0.022633329 -0.0059705614 0.072700001
-0.02243191 -0.0059623485 0.0726
-0.02223096 -0.0059541357 0.072499998
-0.02203048 -0.0059459233 0.072399996
-0.021860663 -0.0059459233 0.072399996
-0.021690847 -0.0059459233 0.072399996
-0.02152103 -0.0059459233 0.072399996
-0.021351214 -0.0059459233 0.072399996
-0.021152141 -0.0059377104 0.072299995
-0.02098256 -0.0059377104 0.072299995
-0.020841764 -0.0059459233 0.072399996
-0.020671949 -0.0059459233 0.072399996
-0.020530449 -0.0059541357 0.072499998
-0.020332316 -0.0059459233 0.072399996
-0.020190347 -0.0059541357 0.072499998
-0.015106191 -0.0064715301 0.0788
-0.014921363 -0.0064715301 0.0788
-0.014717834 -0.0064633172 0.078699999
-0.01453324 -0.0064633172 0.078699999
-0.014348647 -0.0064633172 0.078699999
-0.014164054 -0.0064633172 0.078699999
-0.01397946 -0.0064633172 0.078699999
-0.013777338 -0.0064551043 0.078599997
-0.013592979 -0.0064551043 0.078599997
-0.0098300781 -0.0061758761 0.075199999
-0.0096665313 -0.006184089 0.075300001
-0.0094899135 -0.006184089 0.075300001
-0.0093256617 -0.0061923009 0.075399995
-0.0091488091 -0.0061923009 0.075399995
-0.0089957546 -0.0062087267 0.075599998
-0.008363192 -0.0062662144 0.076299995
-0.0082056811 -0.0062826402 0.076499999
-0.0080367401 -0.0062908526 0.0766
-0.0078570722 -0.0062908526 0.0766
-0.0076774047 -0.0062908526 0.0766
-0.0056712897 -0.0062580025 0.076200001
-0.0054925601 -0.0062580025 0.076200001
-0.0053138309 -0.0062580025 0.076200001
-0.0051351013 -0.0062580025 0.076200001
-0.0049563721 -0.0062580025 0.076200001
-0.0047776429 -0.0062580025 0.076200001
-0.0045989132 -0.0062580025 0.076200001
-0.0044259839 -0.0062662144 0.076299995
-0.00424702 -0.0062662144 0.076299995
-0.0040680561 -0.0062662144 0.076299995
-0.003889092 -0.0062662144 0.076299995
-0.0037101279 -0.0062662144 0.076299995
-0.0035311638 -0.0062662144 0.076299995
-0.0033565934 -0.0062744273 0.076399997
-0.0031732358 -0.0062662144 0.076299995
-0.0029981963 -0.0062744273 0.076399997
-0.002815308 -0.0062662144 0.076299995
0.00094293628 -0.0062662144 0.076299995
0.0011219003 -0.0062662144 0.076299995
0.0013008643 -0.0062662144 0.076299995
0.0014798283 -0.0062662144 0.076299995
0.0016609664 -0.0062744273 0.076399997
0.001840165 -0.0062744273 0.076399997
0.0020220065 -0.0062826402 0.076499999
0.0022043176 -0.0062908526 0.0766
0.010307666 -0.0064140414 0.078099996
0.010490851 -0.0064140414 0.078099996
0.010687705 -0.0064222543 0.078199998
0.010871125 -0.0064222543 0.078199998
0.011054547 -0.0064222543 0.078199998
0.011252338 -0.0064304667 0.078299999
0.011450597 -0.0064386795 0.078400001
0.011649326 -0.0064468919 0.078499995
0.011848525 -0.0064551043 0.078599997
0.012063502 -0.0064715301 0.0788
0.012279417 -0.0064879549 0.078999996
0.012464714 -0.0064879549 0.078999996
0.015001686 -0.0064633172 0.078699999
0.01518628 -0.0064633172 0.078699999
0.015370873 -0.0064633172 0.078699999
0.015555467 -0.0064633172 0.078699999
0.015740059 -0.0064633172 0.078699999
0.015924653 -0.0064633172 0.078699999
0.016109247 -0.0064633172 0.078699999
0.016293839 -0.0064633172 0.078699999
0.016478432 -0.0064633172 0.078699999
0.019657711 -0.006299065 0.076699995
0.019837612 -0.006299065 0.076699995
0.019991418 -0.0062908526 0.0766
0.020171085 -0.0062908526 0.0766
0.020324185 -0.0062826402 0.076499999
0.02050362 -0.0062826402 0.076499999
0.020683052 -0.0062826402 0.076499999
0.020862484 -0.0062826402 0.076499999
0.021041919 -0.0062826402 0.076499999
0.021221351 -0.0062826402 0.076499999
0.021400785 -0.0062826402 0.076499999
0.021580217 -0.0062826402 0.076499999
0.021759652 -0.0062826402 0.076499999
0.021967761 -0.0062908526 0.0766
0.022147428 -0.0062908526 0.0766
0.022356242 -0.006299065 0.076699995
0.022536146 -0.006299065 0.076699995
0.022745665 -0.0063072774 0.076799996
0.022955654 -0.0063154902 0.076899998
0.023166111 -0.0063237031 0.077
0.023377039 -0.006331916 0.077100001
0.023588432 -0.0063401279 0.077199996
0.023800297 -0.0063483408 0.077299997
0.024012631 -0.0063565532 0.077399999
0.024225434 -0.006364766 0.077500001
0.02437572 -0.0063565532 0.077399999
0.024557265 -0.0063565532 0.077399999
0.024738807 -0.0063565532 0.077399999
0.024920352 -0.0063565532 0.077399999
0.025069464 -0.0063483408 0.077299997
0.025218107 -0.0063401279 0.077199996
0.025399182 -0.0063401279 0.077199996
0.025547124 -0.006331916 0.077100001
0.025675036 -0.0056092069 0.068300001
0.025873059 -0.0056174188 0.068399996
0.026033493 -0.0056174188 0.068399996
0.02719344 -0.0056584822 0.068899997
0.02759653 -0.0056749075 0.0691
0.02938642 -0.005707758 0.069499999
0.029549435 -0.005707758 0.069499999
0.030927308 -0.0056913323 0.069299996
0.031089853 -0.0056913323 0.069299996
0.031252399 -0.0056913323 0.069299996
0.031414945 -0.0056913323 0.069299996
0.031531926 -0.0056831203 0.069200002
0.031694237 -0.0056831203 0.069200002
0.031856548 -0.0056831203 0.069200002
0.031972587 -0.0056749075 0.0691
0.032134663 -0.0056749075 0.0691
0.03229674 -0.0056749075 0.0691
0.03241184 -0.0056666946 0.068999998
0.032526471 -0.0056584822 0.068899997
0.032688078 -0.0056584822 0.068899997
0.032802008 -0.0056502693 0.068799995
0.03296338 -0.0056502693 0.068799995
0.033124752 -0.0056502693 0.068799995
0.033237748 -0.0056420574 0.068700001
0.033398885 -0.0056420574 0.068700001
0.033511173 -0.0056338445 0.068599999
0.033622991 -0.0056256317 0.068499997
0.03373434 -0.0056174188 0.068399996
0.033894774 -0.0056174188 0.068399996
0.034005422 -0.0056092069 0.068300001
0.034115601 -0.005600994 0.0682
0.034275565 -0.005600994 0.0682
0.034435529 -0.005600994 0.0682
0.034595497 -0.005600994 0.0682
0.034755457 -0.005600994 0.0682
0.034915425 -0.005600994 0.0682
0.035075389 -0.005600994 0.0682
0.035235357 -0.005600994 0.0682
0.035395321 -0.005600994 0.0682
0.035555288 -0.005600994 0.0682
0.035767619 -0.0056092069 0.068300001
0.035927821 -0.0056092069 0.068300001
0.03608802 -0.0056092069 0.068300001
0.036248222 -0.0056092069 0.068300001
0.036461722 -0.0056174188 0.068399996
0.036622159 -0.0056174188 0.068399996
0.036782593 -0.0056174188 0.068399996
0.036943026 -0.0056174188 0.068399996
0.037157707 -0.0056256317 0.068499997
0.037318379 -0.0056256317 0.068499997
0.037479043 -0.0056256317 0.068499997
0.037694663 -0.0056338445 0.068599999
0.037855566 -0.0056338445 0.068599999
0.038016472 -0.0056338445 0.068599999
0.038177371 -0.0056338445 0.068599999
0.038394164 -0.0056420574 0.068700001
0.038555302 -0.0056420574 0.068700001
0.038716443 -0.0056420574 0.068700001
0.038934164 -0.0056502693 0.068799995
0.039095536 -0.0056502693 0.068799995
0.039313972 -0.0056584822 0.068899997
0.039475575 -0.0056584822 0.068899997
0.039694715 -0.0056666946 0.068999998
0.039914317 -0.0056749075 0.0691
0.040134396 -0.0056831203 0.069200002
0.040354934 -0.0056913323 0.069299996
0.040517479 -0.0056913323 0.069299996
0.040738728 -0.0056995451 0.069399998
0.040960446 -0.005707758 0.069499999
0.041123457 -0.005707758 0.069499999
-0.03468113 -0.0056245239 0.070500001
-0.034515768 -0.0056245239 0.070500001
-0.034399129 -0.0056325016 0.070599996
-0.034233537 -0.0056325016 0.070599996
-0.03406794 -0.0056325016 0.070599996
-0.033902347 -0.0056325016 0.070599996
-0.03373675 -0.0056325016 0.070599996
-0.033571158 -0.0056325016 0.070599996
-0.033192888 -0.0056245239 0.070500001
-0.03302753 -0.0056245239 0.070500001
-0.032908779 -0.0056325016 0.070599996
-0.032743186 -0.0056325016 0.070599996
-0.032577589 -0.0056325016 0.070599996
-0.032411996 -0.0056325016 0.070599996
-0.032292079 -0.0056404797 0.070699997
-0.032126248 -0.0056404797 0.070699997
-0.03196042 -0.0056404797 0.070699997
-0.031839564 -0.0056484579 0.070799999
-0.031718235 -0.0056564361 0.070900001
-0.031596437 -0.0056644138 0.070999995
-0.031518441 -0.0056803701 0.071199998
-0.031395473 -0.0056883483 0.0713
-0.031023752 -0.0057122824 0.071599998
-0.03085581 -0.0057122824 0.071599998
-0.030730732 -0.0057202606 0.071699999
-0.030605184 -0.0057282387 0.071800001
-0.030436775 -0.0057282387 0.071800001
-0.030268366 -0.0057282387 0.071800001
-0.030141875 -0.0057362164 0.071899995
-0.029973231 -0.0057362164 0.071899995
-0.029804587 -0.0057362164 0.071899995
-0.029635943 -0.0057362164 0.071899995
-0.029508285 -0.0057441946 0.071999997
-0.029339407 -0.0057441946 0.071999997
-0.029170528 -0.0057441946 0.071999997
-0.029001649 -0.0057441946 0.071999997
-0.028832771 -0.0057441946 0.071999997
-0.028663896 -0.0057441946 0.071999997
-0.028495017 -0.0057441946 0.071999997
-0.028326139 -0.0057441946 0.071999997
-0.028118152 -0.0057362164 0.071899995
-0.027949508 -0.0057362164 0.071899995
-0.027780864 -0.0057362164 0.071899995
-0.02761222 -0.0057362164 0.071899995
-0.027443577 -0.0057362164 0.071899995
-0.027274935 -0.0057362164 0.071899995
-0.027068593 -0.0057282387 0.071800001
-0.023379549 -0.0058159968 0.072899997
-0.02320856 -0.0058159968 0.072899997
-0.023037571 -0.0058159968 0.072899997
-0.022664459 -0.0058080186 0.072799996
-0.022462809 -0.0058000409 0.072700001
-0.022292288 -0.0058000409 0.072700001
-0.022091338 -0.0057920627 0.0726
-0.021921054 -0.0057920627 0.0726
-0.021720808 -0.0057840846 0.072499998
-0.021550756 -0.0057840846 0.072499998
-0.021351214 -0.0057761064 0.072399996
-0.021181397 -0.0057761064 0.072399996
-0.021011582 -0.0057761064 0.072399996
-0.020870551 -0.0057840846 0.072499998
-0.020700501 -0.0057840846 0.072499998
-0.020558769 -0.0057920627 0.0726
-0.020388482 -0.0057920627 0.0726
-0.020218197 -0.0057920627 0.0726
-0.020075526 -0.0058000409 0.072700001
-0.014902427 -0.0062787239 0.078699999
-0.014717834 -0.0062787239 0.078699999
-0.01453324 -0.0062787239 0.078699999
-0.014348647 -0.0062787239 0.078699999
-0.014164054 -0.0062787239 0.078699999
-0.01397946 -0.0062787239 0.078699999
-0.013777338 -0.0062707458 0.078599997
-0.010182845 -0.005999492 0.075199999
-0.010006462 -0.005999492 0.075199999
-0.0098300781 -0.005999492 0.075199999
-0.0096665313 -0.0060074702 0.075300001
-0.0094899135 -0.0060074702 0.075300001
-0.0093256617 -0.0060154479 0.075399995
-0.0091488091 -0.0060154479 0.075399995
-0.0089719556 -0.0060154479 0.075399995
-0.0088067679 -0.0060234261 0.075499997
-0.00866397 -0.0060473606 0.075800002
-0.0080052642 -0.0060872505 0.076299995
-0.0078365579 -0.0060952287 0.076399997
-0.0076573589 -0.0060952287 0.076399997
-0.0074781603 -0.0060952287 0.076399997
-0.0060129254 -0.0060633165 0.075999998
-0.0058346647 -0.0060633165 0.075999998
-0.0056564044 -0.0060633165 0.075999998
-0.0054853521 -0.0060712947 0.076099999
-0.0053068572 -0.0060712947 0.076099999
-0.0051283622 -0.0060712947 0.076099999
-0.0049498677 -0.0060712947 0.076099999
-0.0047713728 -0.0060712947 0.076099999
-0.0045928778 -0.0060712947 0.076099999
-0.0044201836 -0.0060792728 0.076200001
-0.0042414539 -0.0060792728 0.076200001
-0.0040627248 -0.0060792728 0.076200001
-0.0038839951 -0.0060792728 0.076200001
-0.0037101279 -0.0060872505 0.076299995
-0.003526536 -0.0060792728 0.076200001
-0.0033521999 -0.0060872505 0.076299995
-0.0031732358 -0.0060872505 0.076299995
-0.0029942717 -0.0060872505 0.076299995
0.00094293628 -0.0060872505 0.076299995
0.0011219003 -0.0060872505 0.076299995
0.0013008643 -0.0060872505 0.076299995
0.0014798283 -0.0060872505 0.076299995
0.0016609664 -0.0060952287 0.076399997
0.001840165 -0.0060952287 0.076399997
0.0020220065 -0.0061032069 0.076499999
0.0022043176 -0.0061111851 0.0766
0.0023870973 -0.0061191623 0.076699995
0.0025669995 -0.0061191623 0.076699995
0.0027504831 -0.0061271405 0.076799996
0.00293062 -0.0061271405 0.076799996
0.0031107566 -0.0061271405 0.076799996
0.010801617 -0.0061989431 0.077699997
0.010998001 -0.0062069213 0.077799998
0.01518628 -0.0062787239 0.078699999
0.015351342 -0.0062707458 0.078599997
0.0155357 -0.0062707458 0.078599997
0.01572006 -0.0062707458 0.078599997
0.015904417 -0.0062707458 0.078599997
0.016088776 -0.0062707458 0.078599997
0.01625243 -0.0062627676 0.078499995
0.016436554 -0.0062627676 0.078499995
0.017102106 -0.0057441946 0.071999997
0.017294971 -0.0057521728 0.072099999
0.017464085 -0.0057521728 0.072099999
0.017633198 -0.0057521728 0.072099999
0.017827002 -0.005760151 0.0722
0.017996348 -0.005760151 0.0722
0.019657711 -0.0061191623 0.076699995
0.019811749 -0.0061111851 0.0766
0.019991418 -0.0061111851 0.0766
0.020171085 -0.0061111851 0.0766
0.020324185 -0.0061032069 0.076499999
0.02050362 -0.0061032069 0.076499999
0.020683052 -0.0061032069 0.076499999
0.020862484 -0.0061032069 0.076499999
0.021041919 -0.0061032069 0.076499999
0.021221351 -0.0061032069 0.076499999
0.021400785 -0.0061032069 0.076499999
0.021580217 -0.0061032069 0.076499999
0.021759652 -0.0061032069 0.076499999
0.021967761 -0.0061111851 0.0766
0.02217634 -0.0061191623 0.076699995
0.02238539 -0.0061271405 0.076799996
0.02259491 -0.0061351187 0.076899998
0.022804899 -0.0061430968 0.077
0.023015358 -0.0061510755 0.077100001
0.023226282 -0.0061590527 0.077199996
0.023437677 -0.0061670309 0.077299997
0.023649544 -0.0061750091 0.077399999
0.023861878 -0.0061829872 0.077500001
0.024043655 -0.0061829872 0.077500001
0.024256691 -0.006190965 0.077599995
0.024588993 -0.0061829872 0.077500001
0.02477077 -0.0061829872 0.077500001
0.024952549 -0.0061829872 0.077500001
0.025101896 -0.0061750091 0.077399999
0.025283441 -0.0061750091 0.077399999
0.025432084 -0.0061670309 0.077299997
0.025580257 -0.0061590527 0.077199996
0.025694596 -0.0061430968 0.077
0.025774386 -0.0061191623 0.076699995
0.025852773 -0.0060952287 0.076399997
0.03157749 -0.0055287872 0.069299996
0.031694237 -0.0055208094 0.069200002
0.031856548 -0.0055208094 0.069200002
0.032018859 -0.0055208094 0.069200002
0.032134663 -0.0055128313 0.0691
0.03229674 -0.0055128313 0.0691
0.03241184 -0.0055048531 0.068999998
0.032526471 -0.0054968749 0.068899997
0.032688078 -0.0054968749 0.068899997
0.032802008 -0.0054888967 0.068799995
0.03296338 -0.0054888967 0.068799995
0.033124752 -0.0054888967 0.068799995
0.033237748 -0.005480919 0.068700001
0.033398885 -0.005480919 0.068700001
0.033511173 -0.0054729409 0.068599999
0.033622991 -0.0054649627 0.068499997
0.033783659 -0.0054649627 0.068499997
0.033894774 -0.0054569845 0.068399996
0.034005422 -0.0054490068 0.068300001
0.034165625 -0.0054490068 0.068300001
0.034275565 -0.0054410286 0.0682
0.034435529 -0.0054410286 0.0682
0.034595497 -0.0054410286 0.0682
0.034755457 -0.0054410286 0.0682
0.034915425 -0.0054410286 0.0682
0.035075389 -0.0054410286 0.0682
0.035235357 -0.0054410286 0.0682
0.035395321 -0.0054410286 0.0682
0.035607424 -0.0054490068 0.068300001
0.035767619 -0.0054490068 0.068300001
0.035927821 -0.0054490068 0.068300001
0.03608802 -0.0054490068 0.068300001
0.036248222 -0.0054490068 0.068300001
0.036461722 -0.0054569845 0.068399996
0.036622159 -0.0054569845 0.068399996
0.036782593 -0.0054569845 0.068399996
0.036997039 -0.0054649627 0.068499997
0.037157707 -0.0054649627 0.068499997
0.037318379 -0.0054649627 0.068499997
0.03753376 -0.0054729409 0.068599999
0.037694663 -0.0054729409 0.068599999
0.037855566 -0.0054729409 0.068599999
0.038016472 -0.0054729409 0.068599999
0.038233027 -0.005480919 0.068700001
0.038394164 -0.005480919 0.068700001
0.038555302 -0.005480919 0.068700001
0.038772795 -0.0054888967 0.068799995
0.038934164 -0.0054888967 0.068799995
0.039152361 -0.0054968749 0.068899997
0.039313972 -0.0054968749 0.068899997
0.03953287 -0.0055048531 0.068999998
0.039694715 -0.0055048531 0.068999998
0.039914317 -0.0055128313 0.0691
0.040134396 -0.0055208094 0.069200002
0.040354934 -0.0055287872 0.069299996
0.040517479 -0.0055287872 0.069299996
0.040738728 -0.0055367653 0.069399998
0.040901508 -0.0055367653 0.069399998
0.041123457 -0.0055447435 0.069499999
-0.034846488 -0.0054591643 0.070500001
-0.03468113 -0.0054591643 0.070500001
-0.034515768 -0.0054591643 0.070500001
-0.03435041 -0.0054591643 0.070500001
-0.034185048 -0.0054591643 0.070500001
-0.03401969 -0.0054591643 0.070500001
-0.033854328 -0.0054591643 0.070500001
-0.03368897 -0.0054591643 0.070500001
-0.033523608 -0.0054591643 0.070500001
-0.033405565 -0.0054669073 0.070599996
-0.033192888 -0.0054591643 0.070500001
-0.03302753 -0.0054591643 0.070500001
-0.032908779 -0.0054669073 0.070599996
-0.032743186 -0.0054669073 0.070599996
-0.032577589 -0.0054669073 0.070599996
-0.032411996 -0.0054669073 0.070599996
-0.032246403 -0.0054669073 0.070599996
-0.032080807 -0.0054669073 0.070599996
-0.03196042 -0.0054746508 0.070699997
-0.031839564 -0.0054823942 0.070799999
-0.031718235 -0.0054901382 0.070900001
-0.031596437 -0.0054978812 0.070999995
-0.031474173 -0.0055056247 0.071099997
-0.03135144 -0.0055133682 0.071199998
-0.031272035 -0.0055288556 0.071400002
-0.031104565 -0.0055288556 0.071400002
-0.030980421 -0.0055365986 0.071499996
-0.03085581 -0.0055443421 0.071599998
-0.030730732 -0.005552086 0.071699999
-0.030605184 -0.0055598295 0.071800001
-0.030436775 -0.0055598295 0.071800001
-0.030268366 -0.0055598295 0.071800001
-0.030141875 -0.0055675725 0.071899995
-0.029973231 -0.0055675725 0.071899995
-0.029804587 -0.0055675725 0.071899995
-0.029635943 -0.0055675725 0.071899995
-0.029508285 -0.005575316 0.071999997
-0.029339407 -0.005575316 0.071999997
-0.029170528 -0.005575316 0.071999997
-0.029001649 -0.005575316 0.071999997
-0.028832771 -0.005575316 0.071999997
-0.028663896 -0.005575316 0.071999997
-0.028495017 -0.005575316 0.071999997
-0.028326139 -0.005575316 0.071999997
-0.028118152 -0.0055675725 0.071899995
-0.027949508 -0.0055675725 0.071899995
-0.02761222 -0.0055675725 0.071899995
-0.027443577 -0.0055675725 0.071899995
-0.027237002 -0.0055598295 0.071800001
-0.02365645 -0.0056295209 0.072700001
-0.023379549 -0.0056450078 0.072899997
-0.023037571 -0.0056450078 0.072899997
-0.022695594 -0.0056450078 0.072899997
-0.022524603 -0.0056450078 0.072899997
-0.022353614 -0.0056450078 0.072899997
-0.022152195 -0.0056372639 0.072799996
-0.02198144 -0.0056372639 0.072799996
-0.021780727 -0.0056295209 0.072700001
-0.021610208 -0.0056295209 0.072700001
-0.021410197 -0.0056217774 0.0726
-0.02123991 -0.0056217774 0.0726
-0.021040604 -0.0056140339 0.072499998
-0.020899339 -0.0056217774 0.0726
-0.020729054 -0.0056217774 0.0726
-0.020558769 -0.0056217774 0.0726
-0.020388482 -0.0056217774 0.0726
-0.020246046 -0.0056295209 0.072700001
-0.020075526 -0.0056295209 0.072700001
-0.010182845 -0.0058231079 0.075199999
-0.010006462 -0.0058231079 0.075199999
-0.0098300781 -0.0058231079 0.075199999
-0.0096665313 -0.0058308518 0.075300001
-0.0094899135 -0.0058308518 0.075300001
-0.0093256617 -0.0058385949 0.075399995
-0.0091488091 -0.0058385949 0.075399995
-0.0089838551 -0.0058463383 0.075499997
-0.0088067679 -0.0058463383 0.075499997
-0.0086525399 -0.0058618258 0.0757
-0.0084861787 -0.0058695693 0.075800002
-0.008319349 -0.0058773123 0.075899996
-0.008152049 -0.0058850558 0.075999998
-0.0079842806 -0.0058927997 0.076099999
-0.0078057861 -0.0058927997 0.076099999
-0.0076272911 -0.0058927997 0.076099999
-0.0074487957 -0.0058927997 0.076099999
-0.0072798552 -0.0059005432 0.076200001
-0.0071011255 -0.0059005432 0.076200001
-0.0069042267 -0.0058850558 0.075999998
-0.0067171161 -0.0058773123 0.075899996
-0.0065390905 -0.0058773123 0.075899996
-0.0063610645 -0.0058773123 0.075899996
-0.0061830385 -0.0058773123 0.075899996
-0.0060050134 -0.0058773123 0.075899996
-0.0058346647 -0.0058850558 0.075999998
-0.0056564044 -0.0058850558 0.075999998
-0.0054781437 -0.0058850558 0.075999998
-0.0052998834 -0.0058850558 0.075999998
-0.0051216232 -0.0058850558 0.075999998
-0.0049368585 -0.0058773123 0.075899996
-0.0047651026 -0.0058850558 0.075999998
-0.0045868424 -0.0058850558 0.075999998
-0.0044143829 -0.0058927997 0.076099999
-0.0042358879 -0.0058927997 0.076099999
-0.0040573929 -0.0058927997 0.076099999
-0.003878898 -0.0058927997 0.076099999
-0.003700403 -0.0058927997 0.076099999
-0.0035219081 -0.0058927997 0.076099999
-0.0033478069 -0.0059005432 0.076200001
-0.0031690772 -0.0059005432 0.076200001
-0.0029903478 -0.0059005432 0.076200001
-0.0028116184 -0.0059005432 0.076200001
0.00094293628 -0.0059082862 0.076299995
0.0011219003 -0.0059082862 0.076299995
0.0013025693 -0.0059160297 0.076399997
0.0014817677 -0.0059160297 0.076399997
0.0016609664 -0.0059160297 0.076399997
0.0018425736 -0.0059237736 0.076499999
0.0020220065 -0.0059237736 0.076499999
0.0022043176 -0.0059315171 0.0766
0.0023870973 -0.0059392601 0.076699995
0.0025669995 -0.0059392601 0.076699995
0.0027504831 -0.0059470036 0.076799996
0.00293062 -0.0059470036 0.076799996
0.0031107566 -0.0059470036 0.076799996
0.0032951785 -0.0059547476 0.076899998
0.0034755501 -0.0059547476 0.076899998
0.011180484 -0.0060244389 0.077799998
0.015884183 -0.0060786433 0.078499995
0.016047839 -0.0060709002 0.078400001
0.016211024 -0.0060631563 0.078299999
0.016394679 -0.0060631563 0.078299999
0.016933227 -0.005575316 0.071999997
0.017102106 -0.005575316 0.071999997
0.017294971 -0.00558306 0.072099999
0.017464085 -0.00558306 0.072099999
0.017633198 -0.00558306 0.072099999
0.017802309 -0.00558306 0.072099999
0.017996348 -0.0055908035 0.0722
0.018190855 -0.0055985465 0.072299995
0.019632082 -0.0059315171 0.0766
0.019785887 -0.0059237736 0.076499999
0.019965319 -0.0059237736 0.076499999
0.020144753 -0.0059237736 0.076499999
0.020324185 -0.0059237736 0.076499999
0.02050362 -0.0059237736 0.076499999
0.020683052 -0.0059237736 0.076499999
0.020862484 -0.0059237736 0.076499999
0.021041919 -0.0059237736 0.076499999
0.021221351 -0.0059237736 0.076499999
0.021400785 -0.0059237736 0.076499999
0.021608427 -0.0059315171 0.0766
0.021788096 -0.0059315171 0.0766
0.021996439 -0.0059392601 0.076699995
0.022205254 -0.0059470036 0.076799996
0.022414539 -0.0059547476 0.076899998
0.022624293 -0.005962491 0.077
0.022834517 -0.0059702345 0.077100001
0.023045206 -0.0059779775 0.077199996
0.023286454 -0.005993465 0.077399999
0.023498319 -0.0060012084 0.077500001
0.023680098 -0.0060012084 0.077500001
0.023892665 -0.0060089515 0.077599995
0.024105703 -0.0060166954 0.077699997
0.024256691 -0.0060089515 0.077599995
0.024438705 -0.0060089515 0.077599995
0.024620717 -0.0060089515 0.077599995
0.024802731 -0.0060089515 0.077599995
0.024952549 -0.0060012084 0.077500001
0.025134329 -0.0060012084 0.077500001
0.025283441 -0.005993465 0.077399999
0.025432084 -0.0059857215 0.077299997
0.025580257 -0.0059779775 0.077199996
0.025694596 -0.005962491 0.077
0.025807992 -0.0059470036 0.076799996
0.025852773 -0.0059160297 0.076399997
0.025895679 -0.0058850558 0.075999998
0.025868092 -0.0058385949 0.075399995
0.032802008 -0.0053275242 0.068799995
0.03296338 -0.0053275242 0.068799995
0.03307661 -0.0053197811 0.068700001
0.033237748 -0.0053197811 0.068700001
0.033398885 -0.0053197811 0.068700001
0.033511173 -0.0053120377 0.068599999
0.033622991 -0.0053042937 0.068499997
0.033783659 -0.0053042937 0.068499997
0.033894774 -0.0052965502 0.068399996
0.034055207 -0.0052965502 0.068399996
0.034165625 -0.0052888072 0.068300001
0.034325823 -0.0052888072 0.068300001
0.034486022 -0.0052888072 0.068300001
0.034595497 -0.0052810637 0.0682
0.034755457 -0.0052810637 0.0682
0.034915425 -0.0052810637 0.0682
0.03512682 -0.0052888072 0.068300001
0.035235357 -0.0052810637 0.0682
0.035395321 -0.0052810637 0.0682
0.035607424 -0.0052888072 0.068300001
0.035767619 -0.0052888072 0.068300001
0.035927821 -0.0052888072 0.068300001
0.03608802 -0.0052888072 0.068300001
0.036301289 -0.0052965502 0.068399996
0.036461722 -0.0052965502 0.068399996
0.036622159 -0.0052965502 0.068399996
0.036836367 -0.0053042937 0.068499997
0.036997039 -0.0053042937 0.068499997
0.037157707 -0.0053042937 0.068499997
0.037372857 -0.0053120377 0.068599999
0.03753376 -0.0053120377 0.068599999
0.037694663 -0.0053120377 0.068599999
0.037910748 -0.0053197811 0.068700001
0.038071889 -0.0053197811 0.068700001
0.038233027 -0.0053197811 0.068700001
0.038394164 -0.0053197811 0.068700001
0.038611419 -0.0053275242 0.068799995
0.038772795 -0.0053275242 0.068799995
0.038990755 -0.0053352676 0.068899997
0.039152361 -0.0053352676 0.068899997
0.039313972 -0.0053352676 0.068899997
0.03953287 -0.0053430116 0.068999998
0.039694715 -0.0053430116 0.068999998
0.039914317 -0.0053507551 0.0691
0.040134396 -0.0053584985 0.069200002
0.040354934 -0.0053662416 0.069299996
0.040517479 -0.0053662416 0.069299996
0.040738728 -0.0053739855 0.069399998
0.040901508 -0.0053739855 0.069399998
0.041123457 -0.005381729 0.069499999
-0.034962185 -0.005286295 0.0704
-0.034797061 -0.005286295 0.0704
-0.03468113 -0.0052938042 0.070500001
-0.034466811 -0.005286295 0.0704
-0.03435041 -0.0052938042 0.070500001
-0.034185048 -0.0052938042 0.070500001
-0.03401969 -0.0052938042 0.070500001
-0.033854328 -0.0052938042 0.070500001
-0.03368897 -0.0052938042 0.070500001
-0.033523608 -0.0052938042 0.070500001
-0.03335825 -0.0052938042 0.070500001
-0.033192888 -0.0052938042 0.070500001
-0.03302753 -0.0052938042 0.070500001
-0.032862168 -0.0052938042 0.070500001
-0.032743186 -0.0053013125 0.070599996
-0.032577589 -0.0053013125 0.070599996
-0.032411996 -0.0053013125 0.070599996
-0.032246403 -0.0053013125 0.070599996
-0.032080807 -0.0053013125 0.070599996
-0.03196042 -0.0053088218 0.070699997
-0.031839564 -0.0053163306 0.070799999
-0.031718235 -0.0053238398 0.070900001
-0.031596437 -0.0053313482 0.070999995
-0.031474173 -0.0053388574 0.071099997
-0.03135144 -0.0053463662 0.071199998
-0.031228237 -0.0053538755 0.0713
-0.031104565 -0.0053613847 0.071400002
-0.030980421 -0.005368893 0.071499996
-0.03085581 -0.0053764023 0.071599998
-0.030730732 -0.0053839111 0.071699999
-0.030605184 -0.0053914203 0.071800001
-0.030436775 -0.0053914203 0.071800001
-0.030268366 -0.0053914203 0.071800001
-0.030141875 -0.0053989287 0.071899995
-0.029973231 -0.0053989287 0.071899995
-0.029846041 -0.0054064379 0.071999997
-0.029677164 -0.0054064379 0.071999997
-0.029508285 -0.0054064379 0.071999997
-0.029339407 -0.0054064379 0.071999997
-0.029170528 -0.0054064379 0.071999997
-0.029001649 -0.0054064379 0.071999997
-0.028832771 -0.0054064379 0.071999997
-0.028663896 -0.0054064379 0.071999997
-0.02845544 -0.0053989287 0.071899995
-0.028286796 -0.0053989287 0.071899995
-0.028118152 -0.0053989287 0.071899995
-0.027949508 -0.0053989287 0.071899995
-0.027780864 -0.0053989287 0.071899995
-0.02761222 -0.0053989287 0.071899995
-0.027405411 -0.0053914203 0.071800001
-0.027237002 -0.0053914203 0.071800001
-0.027030891 -0.0053839111 0.071699999
-0.02417114 -0.0054214559 0.0722
-0.024035035 -0.0054289643 0.072299995
-0.023898462 -0.0054364735 0.072399996
-0.02376142 -0.0054439828 0.072499998
-0.02362391 -0.0054514916 0.0726
-0.023347478 -0.0054665091 0.072799996
-0.02320856 -0.0054740184 0.072899997
-0.023069173 -0.0054815272 0.072999999
-0.022726726 -0.0054815272 0.072999999
-0.022555502 -0.0054815272 0.072999999
-0.021639932 -0.0054665091 0.072799996
-0.021439688 -0.0054590008 0.072700001
-0.021269167 -0.0054590008 0.072700001
-0.021069625 -0.0054514916 0.0726
-0.020899339 -0.0054514916 0.0726
-0.020757606 -0.0054590008 0.072700001
-0.020587087 -0.0054590008 0.072700001
-0.020444648 -0.0054665091 0.072799996
-0.020246046 -0.0054590008 0.072700001
-0.020103138 -0.0054665091 0.072799996
-0.010169304 -0.005639215 0.075099997
-0.010006462 -0.0056467243 0.075199999
-0.0098300781 -0.0056467243 0.075199999
-0.0096665313 -0.005654233 0.075300001
-0.0094899135 -0.005654233 0.075300001
-0.0093256617 -0.0056617418 0.075399995
-0.0091488091 -0.0056617418 0.075399995
-0.0089719556 -0.0056617418 0.075399995
-0.0088184327 -0.0056767599 0.075599998
-0.0086411098 -0.0056767599 0.075599998
-0.0084861787 -0.0056917779 0.075800002
-0.0083083883 -0.0056917779 0.075800002
-0.008130597 -0.0056917779 0.075800002
-0.007963297 -0.0056992862 0.075899996
-0.0077852709 -0.0056992862 0.075899996
-0.0076072454 -0.0056992862 0.075899996
-0.0074292193 -0.0056992862 0.075899996
-0.0072511937 -0.0056992862 0.075899996
-0.0070731682 -0.0056992862 0.075899996
-0.006886058 -0.0056917779 0.075800002
-0.0067082667 -0.0056917779 0.075800002
-0.0065304753 -0.0056917779 0.075800002
-0.006352684 -0.0056917779 0.075800002
-0.0061748927 -0.0056917779 0.075800002
-0.0059971022 -0.0056917779 0.075800002
-0.0058269873 -0.0056992862 0.075899996
-0.0056489618 -0.0056992862 0.075899996
-0.0054709357 -0.0056992862 0.075899996
-0.0052929097 -0.0056992862 0.075899996
-0.0051148841 -0.0056992862 0.075899996
-0.0049303547 -0.0056917779 0.075800002
-0.0047525633 -0.0056917779 0.075800002
-0.0045808069 -0.0056992862 0.075899996
-0.0044027809 -0.0056992862 0.075899996
-0.0042247549 -0.0056992862 0.075899996
-0.0040467293 -0.0056992862 0.075899996
-0.0038738009 -0.0057067955 0.075999998
-0.0036955404 -0.0057067955 0.075999998
-0.0035172799 -0.0057067955 0.075999998
-0.0033390198 -0.0057067955 0.075999998
0.00094293628 -0.0057293223 0.076299995
0.0011219003 -0.0057293223 0.076299995
0.0013008643 -0.0057293223 0.076299995
0.0014817677 -0.0057368311 0.076399997
0.0016631405 -0.0057443404 0.076499999
0.0018425736 -0.0057443404 0.076499999
0.0020246499 -0.0057518496 0.0766
0.0022043176 -0.0057518496 0.0766
0.0023870973 -0.0057593579 0.076699995
0.0025703462 -0.0057668672 0.076799996
0.0027504831 -0.0057668672 0.076799996
0.0029344361 -0.005774376 0.076899998
0.0031188577 -0.0057818852 0.077
0.016933227 -0.0054064379 0.071999997
0.017102106 -0.0054064379 0.071999997
0.017294971 -0.0054139467 0.072099999
0.017464085 -0.0054139467 0.072099999
0.017633198 -0.0054139467 0.072099999
0.017802309 -0.0054139467 0.072099999
0.017996348 -0.0054214559 0.0722
0.018190855 -0.0054289643 0.072299995
0.019760022 -0.0057368311 0.076399997
0.01993922 -0.0057368311 0.076399997
0.020118419 -0.0057368311 0.076399997
0.020297617 -0.0057368311 0.076399997
0.020476816 -0.0057368311 0.076399997
0.020683052 -0.0057443404 0.076499999
0.020862484 -0.0057443404 0.076499999
0.021041919 -0.0057443404 0.076499999
0.021249093 -0.0057518496 0.0766
0.021456733 -0.0057593579 0.076699995
0.021636635 -0.0057593579 0.076699995
0.021844983 -0.0057668672 0.076799996
0.022053797 -0.005774376 0.076899998
0.022263082 -0.0057818852 0.077
0.022472836 -0.005789394 0.077100001
0.022683056 -0.0057969028 0.077199996
0.022893749 -0.0058044116 0.077299997
0.02310491 -0.0058119209 0.077399999
0.02331654 -0.0058194301 0.077500001
0.023528637 -0.0058269384 0.077599995
0.023710651 -0.0058269384 0.077599995
0.023923455 -0.0058344477 0.077699997
0.024105703 -0.0058344477 0.077699997
0.02428795 -0.0058344477 0.077699997
0.024438705 -0.0058269384 0.077599995
0.024620717 -0.0058269384 0.077599995
0.024802731 -0.0058269384 0.077599995
0.024984743 -0.0058269384 0.077599995
0.025134329 -0.0058194301 0.077500001
0.025316106 -0.0058194301 0.077500001
0.025464984 -0.0058119209 0.077399999
0.025580257 -0.0057969028 0.077199996
0.025694596 -0.0057818852 0.077
0.025799477 -0.0056467243 0.075199999
0.025872236 -0.0056241974 0.074900001
0.026117304 -0.0055641253 0.074099995
0.02625563 -0.0055566169 0.074000001
0.026602767 -0.0055566169 0.074000001
0.026776338 -0.0055566169 0.074000001
0.032802008 -0.0051661516 0.068799995
0.03296338 -0.0051661516 0.068799995
0.03307661 -0.0051586432 0.068700001
0.033237748 -0.0051586432 0.068700001
0.03335027 -0.005151134 0.068599999
0.033511173 -0.005151134 0.068599999
0.033622991 -0.0051436247 0.068499997
0.033783659 -0.0051436247 0.068499997
0.033944327 -0.0051436247 0.068499997
0.034055207 -0.0051361159 0.068399996
0.034215644 -0.0051361159 0.068399996
0.034486022 -0.0051286072 0.068300001
0.034646224 -0.0051286072 0.068300001
0.034806419 -0.0051286072 0.068300001
0.034966622 -0.0051286072 0.068300001
0.03512682 -0.0051286072 0.068300001
0.035287023 -0.0051286072 0.068300001
0.035447221 -0.0051286072 0.068300001
0.035607424 -0.0051286072 0.068300001
0.035767619 -0.0051286072 0.068300001
0.035980422 -0.0051361159 0.068399996
0.036140855 -0.0051361159 0.068399996
0.036301289 -0.0051361159 0.068399996
0.036461722 -0.0051361159 0.068399996
0.036675703 -0.0051436247 0.068499997
0.036836367 -0.0051436247 0.068499997
0.036997039 -0.0051436247 0.068499997
0.037211951 -0.005151134 0.068599999
0.037372857 -0.005151134 0.068599999
0.03753376 -0.005151134 0.068599999
0.037749615 -0.0051586432 0.068700001
0.037910748 -0.0051586432 0.068700001
0.038071889 -0.0051586432 0.068700001
0.038233027 -0.0051586432 0.068700001
0.038450051 -0.0051661516 0.068799995
0.038611419 -0.0051661516 0.068799995
0.038772795 -0.0051661516 0.068799995
0.038990755 -0.0051736608 0.068899997
0.039152361 -0.0051736608 0.068899997
0.039313972 -0.0051736608 0.068899997
0.03953287 -0.0051811696 0.068999998
0.039694715 -0.0051811696 0.068999998
0.039914317 -0.0051886789 0.0691
0.040134396 -0.0051961876 0.069200002
0.040354934 -0.0052036964 0.069299996
0.040517479 -0.0052036964 0.069299996
0.040738728 -0.0052112052 0.069399998
0.040901508 -0.0052112052 0.069399998
0.041123457 -0.0052187145 0.069499999
-0.03611185 -0.0045392183 0.062399998
-0.034912523 -0.0051138951 0.070299998
-0.034747634 -0.0051138951 0.070299998
-0.034631934 -0.0051211696 0.0704
-0.034466811 -0.0051211696 0.0704
-0.03435041 -0.0051284442 0.070500001
-0.034185048 -0.0051284442 0.070500001
-0.03401969 -0.0051284442 0.070500001
-0.033854328 -0.0051284442 0.070500001
-0.03368897 -0.0051284442 0.070500001
-0.033571158 -0.0051357178 0.070599996
-0.03335825 -0.0051284442 0.070500001
-0.033192888 -0.0051284442 0.070500001
-0.03302753 -0.0051284442 0.070500001
-0.032862168 -0.0051284442 0.070500001
-0.03269681 -0.0051284442 0.070500001
-0.032577589 -0.0051357178 0.070599996
-0.032411996 -0.0051357178 0.070599996
-0.032246403 -0.0051357178 0.070599996
-0.032126248 -0.0051429924 0.070699997
-0.03196042 -0.0051429924 0.070699997
-0.031839564 -0.0051502669 0.070799999
-0.031718235 -0.0051575415 0.070900001
-0.031596437 -0.0051648156 0.070999995
-0.031474173 -0.0051720901 0.071099997
-0.03135144 -0.0051793647 0.071199998
-0.031228237 -0.0051866388 0.0713
-0.031104565 -0.0051939134 0.071400002
-0.030980421 -0.0052011875 0.071499996
-0.03085581 -0.005208462 0.071599998
-0.030730732 -0.0052157366 0.071699999
-0.030605184 -0.0052230111 0.071800001
-0.030436775 -0.0052230111 0.071800001
-0.030310519 -0.0052302852 0.071899995
-0.030141875 -0.0052302852 0.071899995
-0.029973231 -0.0052302852 0.071899995
-0.029846041 -0.0052375593 0.071999997
-0.029677164 -0.0052375593 0.071999997
-0.029508285 -0.0052375593 0.071999997
-0.029339407 -0.0052375593 0.071999997
-0.029170528 -0.0052375593 0.071999997
-0.029001649 -0.0052375593 0.071999997
-0.028832771 -0.0052375593 0.071999997
-0.028624084 -0.0052302852 0.071899995
-0.02845544 -0.0052302852 0.071899995
-0.028286796 -0.0052302852 0.071899995
-0.028118152 -0.0052302852 0.071899995
-0.027949508 -0.0052302852 0.071899995
-0.027742229 -0.0052230111 0.071800001
-0.02761222 -0.0052302852 0.071899995
-0.027405411 -0.0052230111 0.071800001
-0.027237002 -0.0052230111 0.071800001
-0.027030891 -0.0052157366 0.071699999
-0.026862716 -0.0052157366 0.071699999
-0.02417114 -0.0052521084 0.0722
-0.024001792 -0.0052521084 0.0722
-0.023728646 -0.0052666571 0.072399996
-0.022243483 -0.0053175781 0.073100001
-0.022072025 -0.0053175781 0.073100001
-0.021870606 -0.0053103035 0.072999999
-0.021498667 -0.005303029 0.072899997
-0.012780168 -0.0053757732 0.073899999
-0.012606833 -0.0053757732 0.073899999
-0.012433498 -0.0053757732 0.073899999
-0.011598129 -0.0053903214 0.074099995
-0.010155763 -0.005455791 0.074999996
-0.0099931555 -0.0054630656 0.075099997
-0.0098170061 -0.0054630656 0.075099997
-0.009653694 -0.0054703401 0.075199999
-0.0094899135 -0.0054776147 0.075300001
-0.0093256617 -0.0054848888 0.075399995
-0.0091488091 -0.0054848888 0.075399995
-0.0089838551 -0.0054921629 0.075499997
-0.0088184327 -0.0054994375 0.075599998
-0.0086411098 -0.0054994375 0.075599998
-0.0084749833 -0.005506712 0.0757
-0.0083083883 -0.0055139866 0.075800002
-0.008130597 -0.0055139866 0.075800002
-0.0079528056 -0.0055139866 0.075800002
-0.0077852709 -0.0055212607 0.075899996
-0.0076072454 -0.0055212607 0.075899996
-0.0074292193 -0.0055212607 0.075899996
-0.0072416407 -0.0055139866 0.075800002
-0.0070638494 -0.0055139866 0.075800002
-0.006886058 -0.0055139866 0.075800002
-0.0058193109 -0.0055139866 0.075800002
-0.0056415196 -0.0055139866 0.075800002
-0.0054637282 -0.0055139866 0.075800002
-0.0052859369 -0.0055139866 0.075800002
-0.0051081455 -0.0055139866 0.075800002
-0.0049303547 -0.0055139866 0.075800002
-0.0047525633 -0.0055139866 0.075800002
-0.004574772 -0.0055139866 0.075800002
-0.0036906777 -0.0055212607 0.075899996
-0.0035126519 -0.0055212607 0.075899996
-0.0033390198 -0.0055285352 0.075999998
-0.0031607593 -0.0055285352 0.075999998
-0.0029824988 -0.0055285352 0.075999998
-0.0010243236 -0.0055430843 0.076200001
-0.00048813521 -0.0055430843 0.076200001
0.00040604424 -0.005550358 0.076299995
0.00094293628 -0.005550358 0.076299995
0.0011219003 -0.005550358 0.076299995
0.0013025693 -0.0055576325 0.076399997
0.0014817677 -0.0055576325 0.076399997
0.0016631405 -0.0055649071 0.076499999
0.0018449823 -0.0055721817 0.0766
0.0020272927 -0.0055794558 0.076699995
0.0022100729 -0.0055867303 0.076799996
0.0023902096 -0.0055867303 0.076799996
0.0025736932 -0.0055940044 0.076899998
0.0027576459 -0.005601279 0.077
0.0029382519 -0.005601279 0.077
0.0044058682 -0.0056303767 0.077399999
0.0045874123 -0.0056303767 0.077399999
0.016933227 -0.0052375593 0.071999997
0.017102106 -0.0052375593 0.071999997
0.017294971 -0.0052448339 0.072099999
0.017464085 -0.0052448339 0.072099999
0.017633198 -0.0052448339 0.072099999
0.017827002 -0.0052521084 0.0722
0.017996348 -0.0052521084 0.0722
0.01993922 -0.0055576325 0.076399997
0.020092085 -0.005550358 0.076299995
0.020297617 -0.0055576325 0.076399997
0.020450015 -0.005550358 0.076299995
0.020656016 -0.0055576325 0.076399997
0.020835213 -0.0055576325 0.076399997
0.021069424 -0.0055721817 0.0766
0.021249093 -0.0055721817 0.0766
0.021456733 -0.0055794558 0.076699995
0.021664845 -0.0055867303 0.076799996
0.021873428 -0.0055940044 0.076899998
0.022082476 -0.005601279 0.077
0.022320906 -0.0056158276 0.077199996
0.022531129 -0.0056231022 0.077299997
0.022771204 -0.0056376513 0.077500001
0.022982597 -0.0056449249 0.077599995
0.023194464 -0.0056521995 0.077699997
0.023376711 -0.0056521995 0.077699997
0.02358928 -0.0056594741 0.077799998
0.023771763 -0.0056594741 0.077799998
0.023954244 -0.0056594741 0.077799998
0.024136728 -0.0056594741 0.077799998
0.024319209 -0.0056594741 0.077799998
0.024501693 -0.0056594741 0.077799998
0.024684174 -0.0056594741 0.077799998
0.024834694 -0.0056521995 0.077699997
0.025016941 -0.0056521995 0.077699997
0.025166757 -0.0056449249 0.077599995
0.025316106 -0.0056376513 0.077500001
0.025464984 -0.0056303767 0.077399999
0.025580257 -0.0056158276 0.077199996
0.025694596 -0.005601279 0.077
0.025803149 -0.0054339683 0.074699998
0.025943581 -0.0054266937 0.074599996
0.026048535 -0.0054121451 0.0744
0.026152551 -0.0053975959 0.074199997
0.026464911 -0.0053903214 0.074099995
0.026638716 -0.0053903214 0.074099995
0.026986323 -0.0053903214 0.074099995
0.027196782 -0.0053975959 0.074199997
0.033511173 -0.0049902303 0.068599999
0.033622991 -0.0049829558 0.068499997
0.033783659 -0.0049829558 0.068499997
0.033944327 -0.0049829558 0.068499997
0.034104999 -0.0049829558 0.068499997
0.034376077 -0.0049756817 0.068399996
0.034536511 -0.0049756817 0.068399996
0.034696948 -0.0049756817 0.068399996
0.034857377 -0.0049756817 0.068399996
0.034966622 -0.0049684076 0.068300001
0.03512682 -0.0049684076 0.068300001
0.035287023 -0.0049684076 0.068300001
0.035447221 -0.0049684076 0.068300001
0.035607424 -0.0049684076 0.068300001
0.035819985 -0.0049756817 0.068399996
0.035980422 -0.0049756817 0.068399996
0.036140855 -0.0049756817 0.068399996
0.036301289 -0.0049756817 0.068399996
0.036515031 -0.0049829558 0.068499997
0.036675703 -0.0049829558 0.068499997
0.036836367 -0.0049829558 0.068499997
0.037051052 -0.0049902303 0.068599999
0.037211951 -0.0049902303 0.068599999
0.037372857 -0.0049902303 0.068599999
0.037588473 -0.0049975049 0.068700001
0.037749615 -0.0049975049 0.068700001
0.037910748 -0.0049975049 0.068700001
0.038127303 -0.005004779 0.068799995
0.038288675 -0.005004779 0.068799995
0.038450051 -0.005004779 0.068799995
0.038667541 -0.0050120535 0.068899997
0.038829152 -0.0050120535 0.068899997
0.038990755 -0.0050120535 0.068899997
0.039209187 -0.0050193281 0.068999998
0.039371032 -0.0050193281 0.068999998
0.03953287 -0.0050193281 0.068999998
0.039752245 -0.0050266027 0.0691
0.039914317 -0.0050266027 0.0691
0.040134396 -0.0050338767 0.069200002
0.040354934 -0.0050411508 0.069299996
0.040517479 -0.0050411508 0.069299996
0.040680025 -0.0050411508 0.069299996
0.040901508 -0.0050484254 0.069399998
0.041123457 -0.0050557 0.069499999
-0.03611185 -0.0043928577 0.062399998
-0.035965487 -0.0043928577 0.062399998
-0.034912523 -0.0049490044 0.070299998
-0.034747634 -0.0049490044 0.070299998
-0.034631934 -0.0049560447 0.0704
-0.034466811 -0.0049560447 0.0704
-0.03435041 -0.0049630846 0.070500001
-0.034185048 -0.0049630846 0.070500001
-0.03401969 -0.0049630846 0.070500001
-0.033854328 -0.0049630846 0.070500001
-0.03368897 -0.0049630846 0.070500001
-0.033523608 -0.0049630846 0.070500001
-0.033405565 -0.004970124 0.070599996
-0.033239968 -0.004970124 0.070599996
-0.033074375 -0.004970124 0.070599996
-0.032862168 -0.0049630846 0.070500001
-0.032743186 -0.004970124 0.070599996
-0.032577589 -0.004970124 0.070599996
-0.032411996 -0.004970124 0.070599996
-0.032246403 -0.004970124 0.070599996
-0.032126248 -0.0049771639 0.070699997
-0.03196042 -0.0049771639 0.070699997
-0.031839564 -0.0049842037 0.070799999
-0.031718235 -0.0049912436 0.070900001
-0.031596437 -0.0049982835 0.070999995
-0.031474173 -0.0050053233 0.071099997
-0.03135144 -0.0050123632 0.071199998
-0.031228237 -0.0050194031 0.0713
-0.031104565 -0.0050264429 0.071400002
-0.030980421 -0.0050334823 0.071499996
-0.03085581 -0.0050405227 0.071599998
-0.030730732 -0.0050475625 0.071699999
-0.030562557 -0.0050475625 0.071699999
-0.030436775 -0.0050546024 0.071800001
-0.030310519 -0.0050616418 0.071899995
-0.030141875 -0.0050616418 0.071899995
-0.029973231 -0.0050616418 0.071899995
-0.029804587 -0.0050616418 0.071899995
-0.029677164 -0.0050686817 0.071999997
-0.029508285 -0.0050686817 0.071999997
-0.029298656 -0.0050616418 0.071899995
-0.029170528 -0.0050686817 0.071999997
-0.029001649 -0.0050686817 0.071999997
-0.028792726 -0.0050616418 0.071899995
-0.028624084 -0.0050616418 0.071899995
-0.02845544 -0.0050616418 0.071899995
-0.028286796 -0.0050616418 0.071899995
-0.028118152 -0.0050616418 0.071899995
-0.027949508 -0.0050616418 0.071899995
-0.027742229 -0.0050546024 0.071800001
-0.02761222 -0.0050616418 0.071899995
-0.027405411 -0.0050546024 0.071800001
-0.027237002 -0.0050546024 0.071800001
-0.027030891 -0.0050475625 0.071699999
-0.026862716 -0.0050475625 0.071699999
-0.026694542 -0.0050475625 0.071699999
-0.026526367 -0.0050475625 0.071699999
-0.026358193 -0.0050475625 0.071699999
-0.02615349 -0.0050405227 0.071599998
-0.02598555 -0.0050405227 0.071599998
-0.02581761 -0.0050405227 0.071599998
-0.025649671 -0.0050405227 0.071599998
-0.025481731 -0.0050405227 0.071599998
-0.025349146 -0.0050475625 0.071699999
-0.025180969 -0.0050475625 0.071699999
-0.025012795 -0.0050475625 0.071699999
-0.024879273 -0.0050546024 0.071800001
-0.024745278 -0.0050616418 0.071899995
-0.024610816 -0.0050686817 0.071999997
-0.024475886 -0.0050757215 0.072099999
-0.024340486 -0.0050827619 0.0722
-0.02417114 -0.0050827619 0.0722
-0.024001792 -0.0050827619 0.0722
-0.023865452 -0.0050898013 0.072299995
-0.023728646 -0.0050968411 0.072399996
-0.02362391 -0.0051109209 0.0726
-0.023485931 -0.0051179607 0.072700001
-0.023379549 -0.0051320405 0.072899997
-0.023240397 -0.0051390803 0.072999999
-0.023100775 -0.0051461202 0.073100001
-0.022960681 -0.0051531596 0.073199995
-0.022820123 -0.0051601995 0.073299997
-0.022648195 -0.0051601995 0.073299997
-0.022476267 -0.0051601995 0.073299997
-0.022273911 -0.0051531596 0.073199995
-0.022102218 -0.0051531596 0.073199995
-0.021930525 -0.0051531596 0.073199995
-0.021729108 -0.0051461202 0.073100001
-0.02155765 -0.0051461202 0.073100001
-0.021356935 -0.0051390803 0.072999999
-0.021185711 -0.0051390803 0.072999999
-0.0209857 -0.0051320405 0.072899997
-0.020814711 -0.0051320405 0.072899997
-0.02064372 -0.0051320405 0.072899997
-0.020472731 -0.0051320405 0.072899997
-0.020329591 -0.0051390803 0.072999999
-0.020158367 -0.0051390803 0.072999999
-0.019987145 -0.0051390803 0.072999999
-0.019815922 -0.0051390803 0.072999999
-0.01967161 -0.0051461202 0.073100001
-0.019500151 -0.0051461202 0.073100001
-0.019355133 -0.0051531596 0.073199995
-0.01918344 -0.0051531596 0.073199995
-0.019011747 -0.0051531596 0.073199995
