# .PCD v0.7 - Point Cloud Data file format
VERSION 0.7
FIELDS x y z rgb
SIZE 4 4 4 4
TYPE F F F U
COUNT 1 1 1 1
WIDTH 1099
HEIGHT 1
VIEWPOINT 0 0 0 1 0 0 0
POINTS 1099
DATA ascii
0.076196022 0.042654622 0.14549999 4278190335
0.076537296 0.042654622 0.14549999 4278190335
0.07687857 0.042654622 0.14549999 4278190335
0.077219851 0.042654622 0.14549999 4278190335
0.077561118 0.042654622 0.14549999 4278190335
0.077902399 0.042654622 0.14549999 4278190335
0.078243673 0.042654622 0.14549999 4278190335
0.078584947 0.042654622 0.14549999 4278190335
0.07887198 0.042625312 0.1454 4278190335
0.079213023 0.042625312 0.1454 4278190335
0.079499349 0.042595994 0.1453 4278190335
0.079730257 0.042537361 0.1451 4278190335
0.080015406 0.042508047 0.145 4278190335
0.080300093 0.042478729 0.14489999 4278190335
0.080584303 0.042449415 0.14479999 4278190335
0.080756292 0.042361468 0.1445 4278190335
0.080982968 0.042302836 0.1443 4278190335
0.081321433 0.042302836 0.1443 4278190335
0.081603296 0.042273518 0.1442 4278190335
0.081884697 0.042244203 0.1441 4278190335
0.082108565 0.042185571 0.14389999 4278190335
0.082331501 0.042126942 0.1437 4278190335
0.082668565 0.042126942 0.1437 4278190335
0.083005607 0.042126942 0.1437 4278190335
0.083342671 0.042126942 0.1437 4278190335
0.083679713 0.042126942 0.1437 4278190335
0.08401677 0.042126942 0.1437 4278190335
0.084353819 0.042126942 0.1437 4278190335
0.084690876 0.042126942 0.1437 4278190335
0.085146263 0.042185571 0.14389999 4278190335
0.085424386 0.042156253 0.14379999 4278190335
0.08588095 0.042214885 0.14399999 4278190335
0.08627858 0.042244203 0.1441 4278190335
0.08667668 0.042273518 0.1442 4278190335
0.087014914 0.042273518 0.1442 4278190335
0.011794246 0.050767671 0.1718 4278190335
0.012175908 0.050679017 0.1715 4278190335
0.01254883 0.050560813 0.17109999 4278190335
0.012942581 0.050531264 0.17099999 4278190335
0.013328061 0.050472166 0.1708 4278190335
0.013696525 0.050353963 0.17039999 4278190335
0.014063115 0.050235763 0.17 4278190335
0.014436334 0.050147109 0.1697 4278190335
0.014799404 0.050028905 0.16929999 4278190335
0.015178552 0.049969807 0.1691 4278190335
0.015556758 0.049910706 0.1689 4278190335
0.015915137 0.049792502 0.16849999 4278190335
0.016291002 0.049733404 0.1683 4278190335
0.016675839 0.049703855 0.1682 4278190335
0.017060209 0.049674302 0.1681 4278190335
0.017454494 0.049674302 0.1681 4278190335
0.017838158 0.049644753 0.168 4278190335
0.018221354 0.049615201 0.1679 4278190335
0.018592995 0.049556099 0.16769999 4278190335
0.018963696 0.049496997 0.16749999 4278190335
0.019345019 0.049467452 0.1674 4278190335
0.01971408 0.04940835 0.1672 4278190335
0.020070177 0.049319696 0.16689999 4278190335
0.020424863 0.049231045 0.16659999 4278190335
0.020778148 0.049142394 0.1663 4278190335
0.021091836 0.048965089 0.16569999 4278190335
0.021441599 0.048876442 0.1654 4278190335
0.021763559 0.048728686 0.16489999 4278190335
0.02209661 0.048610486 0.1645 4278190335
0.022414112 0.04846273 0.16399999 4278190335
0.022770977 0.048403636 0.1638 4278190335
0.023112766 0.048314981 0.1635 4278190335
0.023481891 0.048285432 0.16339999 4278190335
0.023850542 0.048255879 0.16329999 4278190335
0.024189049 0.048167232 0.163 4278190335
0.024556296 0.04813768 0.1629 4278190335
0.024938382 0.04813768 0.1629 4278190335
0.02532047 0.04813768 0.1629 4278190335
0.029195907 0.04952655 0.16759999 4278190335
0.029730251 0.049762953 0.16839999 4278190335
0.030286239 0.050028905 0.16929999 4278190335
0.030719586 0.050088007 0.16949999 4278190335
0.031208947 0.050235763 0.17 4278190335
0.03164487 0.050294861 0.17019999 4278190335
0.032081734 0.050353963 0.17039999 4278190335
0.0325386 0.050442614 0.1707 4278190335
0.032977577 0.050501715 0.1709 4278190335
0.033397958 0.050531264 0.17099999 4278190335
0.033818807 0.050560813 0.17109999 4278190335
0.034320131 0.05070857 0.1716 4278190335
0.034783326 0.050797217 0.17189999 4278190335
0.035227463 0.050856318 0.17209999 4278190335
0.059412908 0.04556679 0.1542 4278190335
0.059774589 0.04556679 0.1542 4278190335
0.06013627 0.04556679 0.1542 4278190335
0.060497951 0.04556679 0.1542 4278190335
0.060859632 0.04556679 0.1542 4278190335
0.061221313 0.04556679 0.1542 4278190335
0.061543059 0.045537241 0.1541 4278190335
0.061944675 0.04556679 0.1542 4278190335
0.063587695 0.045448586 0.1538 4278190335
0.06382896 0.044857576 0.15179999 4278190335
0.063931324 0.044680275 0.1512 4278190335
0.064030863 0.044502974 0.1506 4278190335
0.06421309 0.04438477 0.15019999 4278190335
0.064350463 0.044237021 0.1497 4278190335
0.064658366 0.044207469 0.1496 4278190335
0.064922348 0.044148367 0.1494 4278190335
0.065272771 0.044148367 0.1494 4278190335
0.065579265 0.044118818 0.14929999 4278190335
0.06592945 0.044118818 0.14929999 4278190335
0.066279642 0.044118818 0.14929999 4278190335
0.066629827 0.044118818 0.14929999 4278190335
0.066890292 0.044059716 0.14909999 4278190335
0.067194909 0.044030163 0.14899999 4278190335
0.067499071 0.044000618 0.1489 4278190335
0.06780275 0.043971065 0.1488 4278190335
0.068105966 0.043941516 0.1487 4278190335
0.068408713 0.043911964 0.1486 4278190335
0.068664715 0.043852862 0.14839999 4278190335
0.068966284 0.043823313 0.14829999 4278190335
0.069220655 0.043764215 0.1481 4278190335
0.069521055 0.043734662 0.148 4278190335
0.069726564 0.043646012 0.1477 4278190335
0.070072994 0.043646012 0.1477 4278190335
0.070371754 0.043616459 0.1476 4278190335
0.070670038 0.04358691 0.14749999 4278190335
0.070919715 0.043527808 0.14729999 4278190335
0.071120068 0.043439157 0.147 4278190335
0.071367629 0.043380056 0.1468 4278190335
0.071565405 0.043291405 0.14649999 4278190335
0.071761772 0.043202754 0.1462 4278190335
0.071907409 0.043084551 0.14579999 4278190335
0.072199836 0.043055002 0.14569999 4278190335
0.072442003 0.0429959 0.14549999 4278190335
0.072733261 0.042966351 0.1454 4278190335
0.07297378 0.042907249 0.1452 4278190335
0.073263854 0.0428777 0.1451 4278190335
0.073604196 0.0428777 0.1451 4278190335
0.073995493 0.042907249 0.1452 4278190335
0.074336067 0.042907249 0.1452 4278190335
0.074728064 0.042936802 0.1453 4278190335
0.075172201 0.0429959 0.14549999 4278190335
0.075513467 0.0429959 0.14549999 4278190335
0.075854748 0.0429959 0.14549999 4278190335
0.076196022 0.0429959 0.14549999 4278190335
0.076537296 0.0429959 0.14549999 4278190335
0.07693141 0.043025449 0.14559999 4278190335
0.077272922 0.043025449 0.14559999 4278190335
0.077614427 0.043025449 0.14559999 4278190335
0.077955939 0.043025449 0.14559999 4278190335
0.078243673 0.0429959 0.14549999 4278190335
0.078584947 0.0429959 0.14549999 4278190335
0.07887198 0.042966351 0.1454 4278190335
0.079158545 0.042936802 0.1453 4278190335
0.079389915 0.0428777 0.1451 4278190335
0.079675309 0.042848147 0.145 4278190335
0.079960227 0.042818598 0.14489999 4278190335
0.080244675 0.042789046 0.14479999 4278190335
0.080472998 0.042729944 0.14459999 4278190335
0.080700397 0.042670846 0.1444 4278190335
0.080982968 0.042641297 0.1443 4278190335
0.081265077 0.042611744 0.1442 4278190335
0.081490114 0.042552643 0.14399999 4278190335
0.081771038 0.042523094 0.14389999 4278190335
0.081994459 0.042463996 0.1437 4278190335
0.082331501 0.042463996 0.1437 4278190335
0.082668565 0.042463996 0.1437 4278190335
0.082947843 0.042434443 0.1436 4278190335
0.083284669 0.042434443 0.1436 4278190335
0.083621487 0.042434443 0.1436 4278190335
0.083958305 0.042434443 0.1436 4278190335
0.084353819 0.042463996 0.1437 4278190335
0.084690876 0.042463996 0.1437 4278190335
0.085146263 0.042523094 0.14389999 4278190335
0.085483789 0.042523094 0.14389999 4278190335
0.08588095 0.042552643 0.14399999 4278190335
0.086158834 0.042523094 0.14389999 4278190335
0.086616568 0.042582195 0.1441 4278190335
0.011794246 0.051170632 0.1718 4278190335
0.012175908 0.051081277 0.1715 4278190335
0.012563499 0.051021706 0.17129999 4278190335
0.012935013 0.050902568 0.1709 4278190335
0.013320257 0.050842997 0.1707 4278190335
0.01368045 0.050694071 0.17019999 4278190335
0.014038297 0.050545145 0.1697 4278190335
0.01441932 0.050485574 0.16949999 4278190335
0.014773181 0.050336652 0.169 4278190335
0.0151606 0.050306868 0.1689 4278190335
0.015538337 0.050247297 0.16869999 4278190335
0.015905691 0.050157938 0.16839999 4278190335
0.016271641 0.050068587 0.1681 4278190335
0.016665926 0.050068587 0.1681 4278190335
0.01705006 0.0500388 0.168 4278190335
0.017433725 0.050009016 0.1679 4278190335
0.017827541 0.050009016 0.1679 4278190335
0.018199649 0.049949445 0.16769999 4278190335
0.018581908 0.049919661 0.16759999 4278190335
0.018963696 0.049889874 0.16749999 4278190335
0.019333463 0.049830306 0.1673 4278190335
0.019702289 0.049770735 0.1671 4278190335
0.020058151 0.04968138 0.16679999 4278190335
0.020424863 0.049621809 0.16659999 4278190335
0.020753158 0.049472887 0.1661 4278190335
0.021091836 0.049353745 0.16569999 4278190335
0.021441599 0.04926439 0.1654 4278190335
0.021763559 0.049115464 0.16489999 4278190335
0.022110041 0.049026113 0.1646 4278190335
0.022441447 0.048906971 0.16419999 4278190335
0.022784879 0.04881762 0.1639 4278190335
0.023155175 0.048787832 0.1638 4278190335
0.023510631 0.048728261 0.1636 4278190335
0.023879753 0.048698477 0.1635 4278190335
0.024263248 0.048698477 0.1635 4278190335
0.024631668 0.04866869 0.16339999 4278190335
0.025014928 0.04866869 0.16339999 4278190335
0.025398187 0.04866869 0.16339999 4278190335
0.028751239 0.049830306 0.1673 4278190335
0.029283008 0.050068587 0.1681 4278190335
0.029783215 0.050247297 0.16869999 4278190335
0.030286239 0.050426003 0.16929999 4278190335
0.030737711 0.050515361 0.1696 4278190335
0.031208947 0.050634503 0.17 4278190335
0.03164487 0.050694071 0.17019999 4278190335
0.03211939 0.050813213 0.1706 4278190335
0.032557663 0.050872784 0.1708 4278190335
0.032996871 0.050932348 0.17099999 4278190335
0.033417489 0.050962135 0.17109999 4278190335
0.033878107 0.05105149 0.1714 4278190335
0.034360133 0.051170632 0.1718 4278190335
0.034783326 0.051200412 0.17189999 4278190335
0.035227463 0.051259983 0.17209999 4278190335
0.060019273 0.045839116 0.1539 4278190335
0.060419485 0.045868903 0.154 4278190335
0.060741227 0.045839116 0.1539 4278190335
0.061102204 0.045839116 0.1539 4278190335
0.061463181 0.045839116 0.1539 4278190335
0.061824158 0.045839116 0.1539 4278190335
0.063999332 0.044588149 0.1497 4278190335
0.064264484 0.044528577 0.1495 4278190335
0.064528704 0.044469006 0.14929999 4278190335
0.064791977 0.044409435 0.14909999 4278190335
0.065098003 0.044379648 0.14899999 4278190335
0.065752819 0.044349868 0.1489 4278190335
0.066146456 0.044379648 0.14899999 4278190335
0.06649594 0.044379648 0.14899999 4278190335
0.066800572 0.044349868 0.1489 4278190335
0.067149818 0.044349868 0.1489 4278190335
0.067408405 0.044290297 0.1487 4278190335
0.067711614 0.044260509 0.1486 4278190335
0.06806016 0.044260509 0.1486 4278190335
0.068362676 0.044230726 0.1485 4278190335
0.068618447 0.044171154 0.14829999 4278190335
0.068919778 0.044141371 0.14819999 4278190335
0.069173917 0.044081803 0.148 4278190335
0.069474079 0.044052016 0.1479 4278190335
0.069726564 0.043992445 0.1477 4278190335
0.070072994 0.043992445 0.1477 4278190335
0.070324078 0.043932874 0.14749999 4278190335
0.070574217 0.043873303 0.14729999 4278190335
0.070775278 0.043783952 0.147 4278190335
0.071071692 0.043754168 0.1469 4278190335
0.071221784 0.043635026 0.14649999 4278190335
0.071418859 0.043545671 0.1462 4278190335
0.071663603 0.0434861 0.146 4278190335
0.07180877 0.043366957 0.14559999 4278190335
0.072100729 0.043337174 0.14549999 4278190335
0.072342433 0.043277606 0.1453 4278190335
0.072633214 0.043247823 0.1452 4278190335
0.072923526 0.043218035 0.1451 4278190335
0.073213361 0.043188252 0.145 4278190335
0.073604196 0.043218035 0.1451 4278190335
0.073944531 0.043218035 0.1451 4278190335
0.074336067 0.043247823 0.1452 4278190335
0.074728064 0.043277606 0.1453 4278190335
0.075120538 0.043307394 0.1454 4278190335
0.075513467 0.043337174 0.14549999 4278190335
0.075854748 0.043337174 0.14549999 4278190335
0.076196022 0.043337174 0.14549999 4278190335
0.076537296 0.043337174 0.14549999 4278190335
0.07687857 0.043337174 0.14549999 4278190335
0.077272922 0.043366957 0.14559999 4278190335
0.077561118 0.043337174 0.14549999 4278190335
0.077902399 0.043337174 0.14549999 4278190335
0.078243673 0.043337174 0.14549999 4278190335
0.078584947 0.043337174 0.14549999 4278190335
0.078817733 0.043277606 0.1453 4278190335
0.079104066 0.043247823 0.1452 4278190335
0.079389915 0.043218035 0.1451 4278190335
0.079675309 0.043188252 0.145 4278190335
0.079960227 0.043158464 0.14489999 4278190335
0.08013384 0.043069109 0.14459999 4278190335
0.080417357 0.043039329 0.1445 4278190335
0.080644511 0.042979758 0.1443 4278190335
0.080926843 0.042949971 0.1442 4278190335
0.081208721 0.042920187 0.1441 4278190335
0.081490114 0.0428904 0.14399999 4278190335
0.081771038 0.042860616 0.14389999 4278190335
0.081994459 0.042801049 0.1437 4278190335
0.082274206 0.042771261 0.1436 4278190335
0.082553506 0.042741477 0.1435 4278190335
0.082890086 0.042741477 0.1435 4278190335
0.083226673 0.042741477 0.1435 4278190335
0.083563253 0.042741477 0.1435 4278190335
0.083958305 0.042771261 0.1436 4278190335
0.084295124 0.042771261 0.1436 4278190335
0.084690876 0.042801049 0.1437 4278190335
0.085027926 0.042801049 0.1437 4278190335
0.085364982 0.042801049 0.1437 4278190335
0.085821308 0.042860616 0.14389999 4278190335
0.086158834 0.042860616 0.14389999 4278190335
0.086616568 0.042920187 0.1441 4278190335
0.012935013 0.05130342 0.1709 4278190335
0.013296847 0.051153321 0.17039999 4278190335
0.013672411 0.051063258 0.17009999 4278190335
0.014030025 0.050913163 0.1696 4278190335
0.014402306 0.050823104 0.16929999 4278190335
0.014773181 0.050733048 0.169 4278190335
0.015124694 0.050582945 0.16849999 4278190335
0.015510704 0.050552927 0.16839999 4278190335
0.015886802 0.05049289 0.1682 4278190335
0.016271641 0.050462872 0.1681 4278190335
0.016656011 0.05043285 0.168 4278190335
0.017039912 0.050402831 0.1679 4278190335
0.017412959 0.050342791 0.16769999 4278190335
0.017806303 0.050342791 0.16769999 4278190335
0.018188797 0.050312772 0.16759999 4278190335
0.01857082 0.05028275 0.16749999 4278190335
0.018952377 0.050252736 0.1674 4278190335
0.019321907 0.050192695 0.1672 4278190335
0.019678706 0.050102636 0.16689999 4278190335
0.020046124 0.050042596 0.16669999 4278190335
0.020400345 0.049952541 0.1664 4278190335
0.020728169 0.049802437 0.16589999 4278190335
0.021079108 0.049712382 0.1656 4278190335
0.021415673 0.049592301 0.1652 4278190335
0.021763559 0.049502242 0.16489999 4278190335
0.022110041 0.049412187 0.1646 4278190335
0.022441447 0.049292106 0.16419999 4278190335
0.022798778 0.049232066 0.16399999 4278190335
0.023169313 0.049202051 0.1639 4278190335
0.023539374 0.049172029 0.1638 4278190335
0.023908963 0.049142011 0.1637 4278190335
0.024292927 0.049142011 0.1637 4278190335
0.024661817 0.049111992 0.1636 4278190335
0.025060855 0.049142011 0.1637 4278190335
0.025444819 0.049142011 0.1637 4278190335
0.027715677 0.049772419 0.16579999 4278190335
0.028240174 0.050012574 0.16659999 4278190335
0.028768426 0.050252736 0.1674 4278190335
0.029283008 0.050462872 0.1681 4278190335
0.02980087 0.050673008 0.1688 4278190335
0.03030413 0.050853122 0.16939999 4278190335
0.030737711 0.050913163 0.1696 4278190335
0.031208947 0.051033244 0.17 4278190335
0.03164487 0.05109328 0.17019999 4278190335
0.03211939 0.051213358 0.1706 4278190335
0.032557663 0.051273398 0.1708 4278190335
0.032996871 0.051333435 0.17099999 4278190335
0.033417489 0.051363453 0.17109999 4278190335
0.033878107 0.051453516 0.1714 4278190335
0.034360133 0.051573597 0.1718 4278190335
0.034803562 0.05163363 0.17199999 4278190335
0.059580766 0.046140052 0.15369999 4278190335
0.059902273 0.046110034 0.15359999 4278190335
0.060301781 0.046140052 0.15369999 4278190335
0.060622822 0.046110034 0.15359999 4278190335
0.060983095 0.046110034 0.15359999 4278190335
0.061343368 0.046110034 0.15359999 4278190335
0.061703641 0.046110034 0.15359999 4278190335
0.064618155 0.044639077 0.1487 4278190335
0.064923249 0.044609059 0.1486 4278190335
0.06562034 0.044609059 0.1486 4278190335
0.065968886 0.044609059 0.1486 4278190335
0.066317432 0.044609059 0.1486 4278190335
0.066665977 0.044609059 0.1486 4278190335
0.066969424 0.044579037 0.1485 4278190335
0.067272402 0.044549018 0.14839999 4278190335
0.067620486 0.044549018 0.14839999 4278190335
0.067922756 0.044518996 0.14829999 4278190335
0.068224564 0.044488978 0.14819999 4278190335
0.06852591 0.044458963 0.1481 4278190335
0.06882678 0.044428941 0.148 4278190335
0.069127172 0.044398922 0.1479 4278190335
0.069380127 0.044338882 0.1477 4278190335
0.069632143 0.044278841 0.14749999 4278190335
0.06997811 0.044278841 0.14749999 4278190335
0.070181049 0.044188786 0.1472 4278190335
0.070430487 0.044128746 0.147 4278190335
0.070926547 0.044008665 0.14659999 4278190335
0.071075939 0.043888588 0.1462 4278190335
0.071321152 0.043828551 0.146 4278190335
0.07151635 0.043738488 0.14569999 4278190335
0.07171014 0.043648433 0.1454 4278190335
0.072001621 0.043618415 0.1453 4278190335
0.072242849 0.043558374 0.1451 4278190335
0.072533168 0.043528352 0.145 4278190335
0.072873265 0.043528352 0.145 4278190335
0.073162869 0.043498334 0.14489999 4278190335
0.073553473 0.043528352 0.145 4278190335
0.073944531 0.043558374 0.1451 4278190335
0.074336067 0.043588392 0.1452 4278190335
0.074728064 0.043618415 0.1453 4278190335
0.075120538 0.043648433 0.1454 4278190335
0.075513467 0.043678448 0.14549999 4278190335
0.075854748 0.043678448 0.14549999 4278190335
0.076248392 0.04370847 0.14559999 4278190335
0.076642506 0.043738488 0.14569999 4278190335
0.076984249 0.043738488 0.14569999 4278190335
0.077325992 0.043738488 0.14569999 4278190335
0.077614427 0.04370847 0.14559999 4278190335
0.077955939 0.04370847 0.14559999 4278190335
0.078243673 0.043678448 0.14549999 4278190335
0.078584947 0.043678448 0.14549999 4278190335
0.07887198 0.043648433 0.1454 4278190335
0.079104066 0.043588392 0.1452 4278190335
0.079335205 0.043528352 0.145 4278190335
0.079620361 0.043498334 0.14489999 4278190335
0.079960227 0.043498334 0.14489999 4278190335
0.08013384 0.043408271 0.14459999 4278190335
0.080417357 0.043378256 0.1445 4278190335
0.080644511 0.043318216 0.1443 4278190335
0.080870725 0.043258175 0.1441 4278190335
0.081096008 0.043198135 0.14389999 4278190335
0.081433527 0.043198135 0.14389999 4278190335
0.081714213 0.043168116 0.14379999 4278190335
0.081937395 0.04310808 0.1436 4278190335
0.082216911 0.043078061 0.1435 4278190335
0.082495973 0.043048039 0.1434 4278190335
0.082832322 0.043048039 0.1434 4278190335
0.083168671 0.043048039 0.1434 4278190335
0.08350502 0.043048039 0.1434 4278190335
0.083899841 0.043078061 0.1435 4278190335
0.084236421 0.043078061 0.1435 4278190335
0.084631942 0.04310808 0.1436 4278190335
0.085027926 0.043138102 0.1437 4278190335
0.085364982 0.043138102 0.1437 4278190335
0.085761666 0.043168116 0.14379999 4278190335
0.086158834 0.043198135 0.14389999 4278190335
0.086556457 0.043228157 0.14399999 4278190335
0.013648299 0.051371474 0.1698 4278190335
0.014013479 0.051250458 0.16939999 4278190335
0.014385293 0.051159695 0.1691 4278190335
0.014755697 0.051068932 0.1688 4278190335
0.015124694 0.050978169 0.16849999 4278190335
0.015492285 0.05088741 0.1682 4278190335
0.015877357 0.050857157 0.1681 4278190335
0.016252281 0.050796647 0.1679 4278190335
0.016646096 0.050796647 0.1679 4278190335
0.017039912 0.050796647 0.1679 4278190335
0.017412959 0.050736137 0.16769999 4278190335
0.017827541 0.050796647 0.1679 4278190335
0.018188797 0.050705884 0.16759999 4278190335
0.01857082 0.050675627 0.16749999 4278190335
0.018941056 0.050615121 0.1673 4278190335
0.01931035 0.050554615 0.1671 4278190335
0.019655125 0.050433595 0.16669999 4278190335
0.020022076 0.050373089 0.1665 4278190335
0.020363566 0.050252073 0.1661 4278190335
0.020715674 0.050161306 0.16579999 4278190335
0.021066379 0.050070547 0.1655 4278190335
0.021415673 0.049979784 0.1652 4278190335
0.021750364 0.049858771 0.1648 4278190335
0.022123475 0.049828514 0.1647 4278190335
0.022468781 0.049737751 0.1644 4278190335
0.022826584 0.049677242 0.16419999 4278190335
0.023197584 0.049646989 0.16409999 4278190335
0.023568114 0.049616732 0.16399999 4278190335
0.023938175 0.049586482 0.1639 4278190335
0.024337446 0.049616732 0.16399999 4278190335
0.02470704 0.049586482 0.1639 4278190335
0.025091473 0.049586482 0.1639 4278190335
0.025491448 0.049616732 0.16399999 4278190335
0.025876114 0.049616732 0.16399999 4278190335
0.026292808 0.049677242 0.16419999 4278190335
0.026742935 0.049798261 0.1646 4278190335
0.027227899 0.049979784 0.1652 4278190335
0.027749112 0.050221816 0.16599999 4278190335
0.028257126 0.050433595 0.16669999 4278190335
0.028768426 0.050645377 0.1674 4278190335
0.029300427 0.05088741 0.1682 4278190335
0.02980087 0.051068932 0.1688 4278190335
0.03030413 0.051250458 0.16939999 4278190335
0.030737711 0.051310964 0.1696 4278190335
0.031172229 0.051371474 0.1698 4278190335
0.03164487 0.05149249 0.17019999 4278190335
0.032081734 0.051552996 0.17039999 4278190335
0.032557663 0.051674016 0.1708 4278190335
0.032977577 0.051704269 0.1709 4278190335
0.033456549 0.051825285 0.17129999 4278190335
0.033897873 0.051885795 0.1715 4278190335
0.034360133 0.051976558 0.1718 4278190335
0.034803562 0.052037064 0.17199999 4278190335
0.059824273 0.046409797 0.15339999 4278190335
0.06018408 0.046409797 0.15339999 4278190335
0.060504422 0.046379548 0.1533 4278190335
0.06086399 0.046379548 0.1533 4278190335
0.061183624 0.046349294 0.1532 4278190335
0.061542958 0.046349294 0.1532 4278190335
0.063877612 0.044957604 0.1486 4278190335
0.064444333 0.044866838 0.14829999 4278190335
0.064704798 0.044806335 0.1481 4278190335
0.065791309 0.044836584 0.14819999 4278190335
0.066138916 0.044836584 0.14819999 4278190335
0.06644167 0.044806335 0.1481 4278190335
0.06674394 0.044776078 0.148 4278190335
0.067045748 0.044745825 0.1479 4278190335
0.067347087 0.044715572 0.1478 4278190335
0.067693755 0.044715572 0.1478 4278190335
0.068040423 0.044715572 0.1478 4278190335
0.068387099 0.044715572 0.1478 4278190335
0.06868726 0.044685315 0.1477 4278190335
0.069333158 0.044655062 0.1476 4278190335
0.069537722 0.044564299 0.14729999 4278190335
0.06988322 0.044564299 0.14729999 4278190335
0.070085689 0.04447354 0.147 4278190335
0.070382573 0.044443283 0.1469 4278190335
0.070582688 0.04435252 0.14659999 4278190335
0.071174599 0.044080231 0.14569999 4278190335
0.071418174 0.044019725 0.14549999 4278190335
0.071611501 0.043928966 0.1452 4278190335
0.071902514 0.043898709 0.1451 4278190335
0.072193064 0.043868456 0.145 4278190335
0.072483145 0.043838199 0.14489999 4278190335
0.07282301 0.043838199 0.14489999 4278190335
0.073162869 0.043838199 0.14489999 4278190335
0.073502742 0.043838199 0.14489999 4278190335
0.073893569 0.043868456 0.145 4278190335
0.074284874 0.043898709 0.1451 4278190335
0.074676633 0.043928966 0.1452 4278190335
0.075120538 0.043989472 0.1454 4278190335
0.075513467 0.044019725 0.14549999 4278190335
0.075906888 0.044049978 0.14559999 4278190335
0.076353125 0.044110488 0.14579999 4278190335
0.076747715 0.044140741 0.1459 4278190335
0.077037089 0.044110488 0.14579999 4278190335
0.077432141 0.044140741 0.1459 4278190335
0.077721044 0.044110488 0.14579999 4278190335
0.078063026 0.044110488 0.14579999 4278190335
0.078351222 0.044080231 0.14569999 4278190335
0.078584947 0.044019725 0.14549999 4278190335
0.078926221 0.044019725 0.14549999 4278190335
0.079104066 0.043928966 0.1452 4278190335
0.079389915 0.043898709 0.1451 4278190335
0.079675309 0.043868456 0.145 4278190335
0.079960227 0.043838199 0.14489999 4278190335
0.080189258 0.043777689 0.14469999 4278190335
0.080361702 0.04368693 0.1444 4278190335
0.080644511 0.043656677 0.1443 4278190335
0.080870725 0.043596167 0.1441 4278190335
0.081152365 0.043565914 0.14399999 4278190335
0.081433527 0.043535657 0.14389999 4278190335
0.081714213 0.043505404 0.14379999 4278190335
0.081937395 0.043444898 0.1436 4278190335
0.082216911 0.043414645 0.1435 4278190335
0.082495973 0.043384392 0.1434 4278190335
0.082832322 0.043384392 0.1434 4278190335
0.083168671 0.043384392 0.1434 4278190335
0.08350502 0.043384392 0.1434 4278190335
0.083841369 0.043384392 0.1434 4278190335
0.084236421 0.043414645 0.1435 4278190335
0.084573008 0.043414645 0.1435 4278190335
0.085027926 0.043475155 0.1437 4278190335
0.085364982 0.043475155 0.1437 4278190335
0.085761666 0.043505404 0.14379999 4278190335
0.086158834 0.043535657 0.14389999 4278190335
0.086556457 0.043565914 0.14399999 4278190335
0.086894222 0.043565914 0.14399999 4278190335
0.014013479 0.05164779 0.16939999 4278190335
0.014368279 0.051495347 0.1689 4278190335
0.014755697 0.051464859 0.1688 4278190335
0.015115718 0.051342901 0.16839999 4278190335
0.015492285 0.051281929 0.1682 4278190335
0.015877357 0.051251438 0.1681 4278190335
0.016261961 0.05122095 0.168 4278190335
0.016646096 0.051190462 0.1679 4278190335
0.017039912 0.051190462 0.1679 4278190335
0.017433725 0.051190462 0.1679 4278190335
0.017806303 0.051129483 0.16769999 4278190335
0.018177943 0.051068503 0.16749999 4278190335
0.018559735 0.051038019 0.1674 4278190335
0.018929733 0.05097704 0.1672 4278190335
0.01931035 0.050946552 0.1671 4278190335
0.019655125 0.050824594 0.16669999 4278190335
0.02001005 0.05073313 0.1664 4278190335
0.020339046 0.050580688 0.16589999 4278190335
0.020690687 0.050489224 0.1656 4278190335
0.021053649 0.050428245 0.1654 4278190335
0.021389745 0.050306287 0.16499999 4278190335
0.021750364 0.050245315 0.1648 4278190335
0.022123475 0.050214823 0.1647 4278190335
0.022468781 0.050123356 0.1644 4278190335
0.022854388 0.050123356 0.1644 4278190335
0.023197584 0.050031889 0.16409999 4278190335
0.023582485 0.050031889 0.16409999 4278190335
0.023952778 0.050001401 0.16399999 4278190335
0.024352286 0.050031889 0.16409999 4278190335
0.024737189 0.050031889 0.16409999 4278190335
0.025137398 0.050062381 0.16419999 4278190335
0.025522536 0.050062381 0.16419999 4278190335
0.025939228 0.050123356 0.1644 4278190335
0.026340848 0.050153848 0.1645 4278190335
0.026791675 0.050275799 0.16489999 4278190335
0.027293827 0.050489224 0.1656 4278190335
0.027799262 0.050702643 0.1663 4278190335
0.028291028 0.050885573 0.16689999 4278190335
0.028785609 0.051068503 0.16749999 4278190335
0.029283008 0.051251438 0.1681 4278190335
0.029747905 0.051373392 0.16849999 4278190335
0.030286239 0.051617298 0.16929999 4278190335
0.030719586 0.051678278 0.16949999 4278190335
0.031153871 0.051739257 0.1697 4278190335
0.031607687 0.051830724 0.17 4278190335
0.032044079 0.051891699 0.17019999 4278190335
0.032519538 0.052013654 0.1706 4278190335
0.03295828 0.052074634 0.1708 4278190335
0.033397958 0.052135605 0.17099999 4278190335
0.03385834 0.052227076 0.17129999 4278190335
0.03430013 0.052288052 0.1715 4278190335
0.034783326 0.052410007 0.17189999 4278190335
0.05974628 0.046708629 0.1532 4278190335
0.060105618 0.046708629 0.1532 4278190335
0.060464952 0.046708629 0.1532 4278190335
0.060824286 0.046708629 0.1532 4278190335
0.061143685 0.046678141 0.1531 4278190335
0.061502788 0.046678141 0.1531 4278190335
0.061821479 0.046647649 0.153 4278190335
0.062180348 0.046647649 0.153 4278190335
0.062539212 0.046647649 0.153 4278190335
0.062884845 0.046373252 0.1521 4278190335
0.063138001 0.045275658 0.1485 4278190335
0.063358054 0.045184191 0.14819999 4278190335
0.06370566 0.045184191 0.14819999 4278190335
0.063966833 0.045123219 0.148 4278190335
0.064270519 0.045092728 0.1479 4278190335
0.064530037 0.045031752 0.1477 4278190335
0.064876474 0.045031752 0.1477 4278190335
0.065222912 0.045031752 0.1477 4278190335
0.065613739 0.04506224 0.1478 4278190335
0.065960407 0.04506224 0.1478 4278190335
0.066262215 0.045031752 0.1477 4278190335
0.066608652 0.045031752 0.1477 4278190335
0.066909753 0.045001261 0.1476 4278190335
0.067255951 0.045001261 0.1476 4278190335
0.06760215 0.045001261 0.1476 4278190335
0.067902319 0.044970773 0.14749999 4278190335
0.068248287 0.044970773 0.14749999 4278190335
0.068594247 0.044970773 0.14749999 4278190335
0.068893477 0.044940285 0.14739999 4278190335
0.069239207 0.044940285 0.14739999 4278190335
0.069443315 0.044848822 0.1471 4278190335
0.069740899 0.044818331 0.147 4278190335
0.070038013 0.044787843 0.1469 4278190335
0.070286743 0.044726864 0.14669999 4278190335
0.070486397 0.044635396 0.14639999 4278190335
0.070733026 0.044574421 0.1462 4278190335
0.070881478 0.044452466 0.14579999 4278190335
0.0710769 0.044360999 0.14549999 4278190335
0.071369097 0.044330515 0.1454 4278190335
0.071512856 0.044208556 0.145 4278190335
0.07185296 0.044208556 0.145 4278190335
0.072143272 0.044178069 0.14489999 4278190335
0.072483145 0.044178069 0.14489999 4278190335
0.072772749 0.044147577 0.14479999 4278190335
0.073112376 0.044147577 0.14479999 4278190335
0.073502742 0.044178069 0.14489999 4278190335
0.073842607 0.044178069 0.14489999 4278190335
0.074233674 0.044208556 0.145 4278190335
0.074676633 0.044269536 0.1452 4278190335
0.075068876 0.044300023 0.1453 4278190335
0.075513467 0.044360999 0.14549999 4278190335
0.075854748 0.044360999 0.14549999 4278190335
0.076300755 0.044421978 0.14569999 4278190335
0.076695114 0.044452466 0.14579999 4278190335
0.077037089 0.044452466 0.14579999 4278190335
0.077432141 0.044482954 0.1459 4278190335
0.077721044 0.044452466 0.14579999 4278190335
0.078063026 0.044452466 0.14579999 4278190335
0.078351222 0.044421978 0.14569999 4278190335
0.078584947 0.044360999 0.14549999 4278190335
0.078926221 0.044360999 0.14549999 4278190335
0.079104066 0.044269536 0.1452 4278190335
0.079335205 0.044208556 0.145 4278190335
0.079620361 0.044178069 0.14489999 4278190335
0.079905041 0.044147577 0.14479999 4278190335
0.08013384 0.044086602 0.14459999 4278190335
0.080361702 0.044025626 0.1444 4278190335
0.080644511 0.043995138 0.1443 4278190335
0.080870725 0.043934159 0.1441 4278190335
0.081152365 0.043903671 0.14399999 4278190335
0.081376933 0.043842692 0.14379999 4278190335
0.081714213 0.043842692 0.14379999 4278190335
0.081937395 0.043781716 0.1436 4278190335
0.082216911 0.043751229 0.1435 4278190335
0.082495973 0.043720741 0.1434 4278190335
0.082832322 0.043720741 0.1434 4278190335
0.083168671 0.043720741 0.1434 4278190335
0.08350502 0.043720741 0.1434 4278190335
0.083841369 0.043720741 0.1434 4278190335
0.084236421 0.043751229 0.1435 4278190335
0.084573008 0.043751229 0.1435 4278190335
0.085027926 0.043812208 0.1437 4278190335
0.085364982 0.043812208 0.1437 4278190335
0.085702032 0.043812208 0.1437 4278190335
0.086039089 0.043812208 0.1437 4278190335
0.086436242 0.043842692 0.14379999 4278190335
0.086833879 0.04387318 0.14389999 4278190335
0.014368279 0.051891509 0.1689 4278190335
0.014729472 0.051768612 0.16849999 4278190335
0.015115718 0.05173789 0.16839999 4278190335
0.015492285 0.051676445 0.1682 4278190335
0.015877357 0.051645722 0.1681 4278190335
0.016261961 0.051615 0.168 4278190335
0.016646096 0.051584274 0.1679 4278190335
0.01705006 0.051615 0.168 4278190335
0.017433725 0.051584274 0.1679 4278190335
0.017795686 0.051492102 0.16759999 4278190335
0.018167093 0.051430661 0.1674 4278190335
0.018526474 0.05133849 0.1671 4278190335
0.018884446 0.051246319 0.16679999 4278190335
0.019252568 0.05118487 0.16659999 4278190335
0.019607963 0.051092703 0.1663 4278190335
0.019961948 0.051000532 0.16599999 4278190335
0.020302268 0.050877642 0.1656 4278190335
0.020665698 0.050816197 0.1654 4278190335
0.021015462 0.050724026 0.16509999 4278190335
0.021376781 0.050662577 0.16489999 4278190335
0.021750364 0.050631858 0.1648 4278190335
0.022110041 0.05057041 0.1646 4278190335
0.022482449 0.050539687 0.1645 4278190335
0.022854388 0.050508965 0.1644 4278190335
0.023239993 0.050508965 0.1644 4278190335
0.023596857 0.050447516 0.16419999 4278190335
0.023967383 0.05041679 0.16409999 4278190335
0.024337446 0.050386067 0.16399999 4278190335
0.024752263 0.050447516 0.16419999 4278190335
0.025137398 0.050447516 0.16419999 4278190335
0.025522536 0.050447516 0.16419999 4278190335
0.025939228 0.050508965 0.1644 4278190335
0.026340848 0.050539687 0.1645 4278190335
0.026759181 0.050601136 0.1647 4278190335
0.027211417 0.050724026 0.16509999 4278190335
0.027698962 0.050908361 0.16569999 4278190335
0.028189324 0.051092703 0.1663 4278190335
0.028665312 0.051246319 0.16679999 4278190335
0.029161068 0.051430661 0.1674 4278190335
0.029641978 0.051584274 0.1679 4278190335
0.030143127 0.051768612 0.16849999 4278190335
0.03062897 0.051922232 0.169 4278190335
0.031098796 0.052045122 0.16939999 4278190335
0.031551909 0.052137293 0.1697 4278190335
0.032025252 0.052260183 0.17009999 4278190335
0.032462351 0.052321631 0.17029999 4278190335
0.032919686 0.052413803 0.1706 4278190335
0.03337843 0.052505974 0.1709 4278190335
0.033818807 0.052567415 0.17109999 4278190335
0.060027149 0.047006518 0.153 4278190335
0.060346548 0.046975791 0.1529 4278190335
0.060705177 0.046975791 0.1529 4278190335
0.061023872 0.046945069 0.15279999 4278190335
0.061422441 0.046975791 0.1529 4278190335
0.062099066 0.046945069 0.15279999 4278190335
0.062457461 0.046945069 0.15279999 4278190335
0.062659495 0.046299886 0.1507 4278190335
0.062705122 0.045562524 0.14829999 4278190335
0.06284038 0.045408908 0.1478 4278190335
0.063144296 0.045378186 0.1477 4278190335
0.063490734 0.045378186 0.1477 4278190335
0.06379395 0.045347463 0.1476 4278190335
0.064140148 0.045347463 0.1476 4278190335
0.064442657 0.045316737 0.14749999 4278190335
0.065090433 0.045286015 0.14739999 4278190335
0.065480553 0.045316737 0.14749999 4278190335
0.065781891 0.045286015 0.14739999 4278190335
0.066082761 0.045255292 0.14729999 4278190335
0.066383168 0.045224573 0.1472 4278190335
0.066728428 0.045224573 0.1472 4278190335
0.067073688 0.045224573 0.1472 4278190335
0.067418955 0.045224573 0.1472 4278190335
0.067718178 0.045193847 0.1471 4278190335
0.068063207 0.045193847 0.1471 4278190335
0.068408236 0.045193847 0.1471 4278190335
0.068753265 0.045193847 0.1471 4278190335
0.069098294 0.045193847 0.1471 4278190335
0.069348894 0.045132402 0.1469 4278190335
0.069646008 0.045101676 0.1468 4278190335
0.069894977 0.045040231 0.14659999 4278190335
0.070143007 0.044978783 0.14639999 4278190335
0.070390105 0.044917341 0.1462 4278190335
0.070587881 0.044825166 0.1459 4278190335
0.070784241 0.044732995 0.14559999 4278190335
0.071028054 0.044671554 0.1454 4278190335
0.071221843 0.044579383 0.1451 4278190335
0.07146354 0.044517934 0.14489999 4278190335
0.071753852 0.044487212 0.14479999 4278190335
0.072043695 0.044456489 0.14469999 4278190335
0.072383098 0.044456489 0.14469999 4278190335
0.072722495 0.044456489 0.14469999 4278190335
0.073061883 0.044456489 0.14469999 4278190335
0.073401287 0.044456489 0.14469999 4278190335
0.073791645 0.044487212 0.14479999 4278190335
0.074182481 0.044517934 0.14489999 4278190335
0.074625202 0.044579383 0.1451 4278190335
0.075017214 0.044610105 0.1452 4278190335
0.075461581 0.044671554 0.1454 4278190335
0.075854748 0.044702273 0.14549999 4278190335
0.076300755 0.044763722 0.14569999 4278190335
0.076695114 0.044794444 0.14579999 4278190335
0.077037089 0.044794444 0.14579999 4278190335
0.07737907 0.044794444 0.14579999 4278190335
0.077667736 0.044763722 0.14569999 4278190335
0.078009486 0.044763722 0.14569999 4278190335
0.078351222 0.044763722 0.14569999 4278190335
0.078584947 0.044702273 0.14549999 4278190335
0.078926221 0.044702273 0.14549999 4278190335
0.079104066 0.044610105 0.1452 4278190335
0.079335205 0.044548661 0.145 4278190335
0.079620361 0.044517934 0.14489999 4278190335
0.079960227 0.044517934 0.14489999 4278190335
0.08013384 0.044425763 0.14459999 4278190335
0.080361702 0.044364322 0.1444 4278190335
0.080644511 0.0443336 0.1443 4278190335
0.080870725 0.044272151 0.1441 4278190335
0.081096008 0.044210702 0.14389999 4278190335
0.081376933 0.04417998 0.14379999 4278190335
0.081714213 0.04417998 0.14379999 4278190335
0.081937395 0.044118535 0.1436 4278190335
0.082216911 0.044087812 0.1435 4278190335
0.082495973 0.04405709 0.1434 4278190335
0.082832322 0.04405709 0.1434 4278190335
0.083168671 0.04405709 0.1434 4278190335
0.08350502 0.04405709 0.1434 4278190335
0.083899841 0.044087812 0.1435 4278190335
0.084236421 0.044087812 0.1435 4278190335
0.084631942 0.044118535 0.1436 4278190335
0.085027926 0.044149261 0.1437 4278190335
0.085364982 0.044149261 0.1437 4278190335
0.085702032 0.044149261 0.1437 4278190335
0.086158834 0.044210702 0.14389999 4278190335
0.086556457 0.044241425 0.14399999 4278190335
0.086894222 0.044241425 0.14399999 4278190335
0.015106743 0.052101925 0.1683 4278190335
0.015492285 0.052070964 0.1682 4278190335
0.015877357 0.052040007 0.1681 4278190335
0.016261961 0.05200905 0.168 4278190335
0.016656011 0.05200905 0.168 4278190335
0.017039912 0.051978089 0.1679 4278190335
0.017392192 0.051854257 0.16749999 4278190335
0.017774452 0.051823303 0.1674 4278190335
0.018134534 0.051730428 0.1671 4278190335
0.018493211 0.051637553 0.16679999 4278190335
0.018850483 0.051544685 0.1665 4278190335
0.019549008 0.051327974 0.16579999 4278190335
0.019913848 0.051266063 0.1656 4278190335
0.020277748 0.051204145 0.1654 4278190335
0.020628214 0.051111273 0.16509999 4278190335
0.020990003 0.051049355 0.16489999 4278190335
0.021363821 0.051018402 0.1648 4278190335
0.021723967 0.050956484 0.1646 4278190335
0.02209661 0.050925527 0.1645 4278190335
0.022468781 0.05089457 0.1644 4278190335
0.022854388 0.05089457 0.1644 4278190335
0.023211719 0.050832652 0.16419999 4278190335
0.023596857 0.050832652 0.16419999 4278190335
0.023967383 0.050801694 0.16409999 4278190335
0.024367126 0.050832652 0.16419999 4278190335
0.024752263 0.050832652 0.16419999 4278190335
0.025137398 0.050832652 0.16419999 4278190335
0.025553623 0.05089457 0.1644 4278190335
0.025939228 0.05089457 0.1644 4278190335
0.026324835 0.05089457 0.1644 4278190335
0.026726687 0.050925527 0.1645 4278190335
0.027161973 0.051018402 0.1648 4278190335
0.027615381 0.051142231 0.1652 4278190335
0.028087616 0.051297016 0.16569999 4278190335
0.029021705 0.051575638 0.16659999 4278190335
0.029536052 0.051792346 0.1673 4278190335
0.030053683 0.05200905 0.168 4278190335
0.030520225 0.052132878 0.16839999 4278190335
0.030988647 0.052256711 0.1688 4278190335
0.031477537 0.052411497 0.16929999 4278190335
0.031931117 0.052504372 0.1696 4278190335
0.032405168 0.052628204 0.17 4278190335
0.033779278 0.052906826 0.1709 4278190335
0.063275807 0.045569833 0.1472 4278190335
0.063621067 0.045569833 0.1472 4278190335
0.063966326 0.045569833 0.1472 4278190335
0.064267904 0.045538876 0.1471 4278190335
0.064569004 0.045507919 0.147 4278190335
0.064913794 0.045507919 0.147 4278190335
0.065258592 0.045507919 0.147 4278190335
0.065558754 0.045476958 0.1469 4278190335
0.065903313 0.045476958 0.1469 4278190335
0.066247873 0.045476958 0.1469 4278190335
0.066547096 0.045446001 0.1468 4278190335
0.066891424 0.045446001 0.1468 4278190335
0.067235745 0.045446001 0.1468 4278190335
0.067580074 0.045446001 0.1468 4278190335
0.067924395 0.045446001 0.1468 4278190335
0.068268716 0.045446001 0.1468 4278190335
0.068613045 0.045446001 0.1468 4278190335
0.068957366 0.045446001 0.1468 4278190335
0.069160059 0.045353126 0.14649999 4278190335
0.06950368 0.045353126 0.14649999 4278190335
0.069704272 0.045260258 0.1462 4278190335
0.069999278 0.045229297 0.1461 4278190335
0.070245668 0.045167383 0.1459 4278190335
0.070442736 0.045074508 0.14559999 4278190335
0.070687018 0.045012593 0.1454 4278190335
0.070881501 0.044919718 0.1451 4278190335
0.071123667 0.044857804 0.14489999 4278190335
0.071364895 0.044795886 0.14469999 4278190335
0.071654744 0.044764929 0.14459999 4278190335
0.071993902 0.044764929 0.14459999 4278190335
0.072283059 0.044733975 0.1445 4278190335
0.072621979 0.044733975 0.1445 4278190335
0.073011391 0.044764929 0.14459999 4278190335
0.073401287 0.044795886 0.14469999 4278190335
0.073791645 0.044826847 0.14479999 4278190335
0.074182481 0.044857804 0.14489999 4278190335
0.07457377 0.044888761 0.145 4278190335
0.075017214 0.044950679 0.1452 4278190335
0.075409681 0.044981636 0.1453 4278190335
0.075854748 0.045043547 0.14549999 4278190335
0.076248392 0.045074508 0.14559999 4278190335
0.076642506 0.045105465 0.14569999 4278190335
0.076984249 0.045105465 0.14569999 4278190335
0.07737907 0.045136422 0.14579999 4278190335
0.077667736 0.045105465 0.14569999 4278190335
0.078009486 0.045105465 0.14569999 4278190335
0.078351222 0.045105465 0.14569999 4278190335
0.078584947 0.045043547 0.14549999 4278190335
0.078926221 0.045043547 0.14549999 4278190335
0.079104066 0.044950679 0.1452 4278190335
0.079389915 0.044919718 0.1451 4278190335
0.079620361 0.044857804 0.14489999 4278190335
0.079960227 0.044857804 0.14489999 4278190335
0.080189258 0.044795886 0.14469999 4278190335
0.080361702 0.044703018 0.1444 4278190335
0.080644511 0.044672057 0.1443 4278190335
0.080870725 0.044610143 0.1441 4278190335
0.081152365 0.044579182 0.14399999 4278190335
0.081433527 0.044548225 0.14389999 4278190335
0.081714213 0.044517267 0.14379999 4278190335
0.081994459 0.044486314 0.1437 4278190335
0.082274206 0.044455353 0.1436 4278190335
0.082611032 0.044455353 0.1436 4278190335
0.082890086 0.044424396 0.1435 4278190335
0.083226673 0.044424396 0.1435 4278190335
0.083621487 0.044455353 0.1436 4278190335
0.083958305 0.044455353 0.1436 4278190335
0.084295124 0.044455353 0.1436 4278190335
0.084690876 0.044486314 0.1437 4278190335
0.085027926 0.044486314 0.1437 4278190335
0.085424386 0.044517267 0.14379999 4278190335
0.085761666 0.044517267 0.14379999 4278190335
0.086098962 0.044517267 0.14379999 4278190335
0.086496353 0.044548225 0.14389999 4278190335
0.086894222 0.044579182 0.14399999 4278190335
0.015097767 0.052465484 0.1682 4278190335
0.015483074 0.052434292 0.1681 4278190335
0.015867911 0.052403096 0.168 4278190335
0.016252281 0.052371904 0.1679 4278190335
0.016626267 0.052309521 0.16769999 4278190335
0.017009465 0.052278325 0.16759999 4278190335
0.017392192 0.052247133 0.16749999 4278190335
0.017753214 0.052153561 0.1672 4278190335
0.018101977 0.05202879 0.16679999 4278190335
0.019171676 0.051748056 0.16589999 4278190335
0.019513637 0.051623292 0.1655 4278190335
0.019865746 0.051529713 0.1652 4278190335
0.020240966 0.051498517 0.16509999 4278190335
0.020590732 0.051404946 0.1648 4278190335
0.020964548 0.051373754 0.1647 4278190335
0.021337893 0.051342558 0.1646 4278190335
0.021697572 0.051280174 0.1644 4278190335
0.022056311 0.051217787 0.16419999 4278190335
0.022441447 0.051217787 0.16419999 4278190335
0.022826584 0.051217787 0.16419999 4278190335
0.023211719 0.051217787 0.16419999 4278190335
0.023596857 0.051217787 0.16419999 4278190335
0.02398199 0.051217787 0.16419999 4278190335
0.024367126 0.051217787 0.16419999 4278190335
0.024752263 0.051217787 0.16419999 4278190335
0.025168018 0.051280174 0.1644 4278190335
0.025522536 0.051217787 0.16419999 4278190335
0.025907671 0.051217787 0.16419999 4278190335
0.026292808 0.051217787 0.16419999 4278190335
0.026710439 0.051280174 0.1644 4278190335
0.027112527 0.051311366 0.1645 4278190335
0.027548516 0.051404946 0.1648 4278190335
0.027985912 0.051498517 0.16509999 4278190335
0.028459087 0.051654484 0.1656 4278190335
0.028917186 0.051779252 0.16599999 4278190335
0.029394817 0.051935215 0.1665 4278190335
0.029892681 0.052122366 0.1671 4278190335
0.030375237 0.052278325 0.16759999 4278190335
0.030860141 0.052434292 0.1681 4278190335
0.031328794 0.052559059 0.16849999 4278190335
0.031818155 0.052715022 0.169 4278190335
0.033561859 0.052964561 0.1698 4278190335
0.063146845 0.045821518 0.1469 4278190335
0.063534625 0.04585271 0.147 4278190335
0.063835964 0.045821518 0.1469 4278190335
0.064180523 0.045821518 0.1469 4278190335
0.064525075 0.045821518 0.1469 4278190335
0.064825475 0.045790326 0.1468 4278190335
0.065169804 0.045790326 0.1468 4278190335
0.065514125 0.045790326 0.1468 4278190335
0.065768726 0.045727938 0.14659999 4278190335
0.066112578 0.045727938 0.14659999 4278190335
0.06645643 0.045727938 0.14659999 4278190335
0.066754721 0.045696747 0.14649999 4278190335
0.067098342 0.045696747 0.14649999 4278190335
0.067441963 0.045696747 0.14649999 4278190335
0.067785583 0.045696747 0.14649999 4278190335
0.068129204 0.045696747 0.14649999 4278190335
0.068472825 0.045696747 0.14649999 4278190335
0.06876947 0.045665555 0.14639999 4278190335
0.069065645 0.045634367 0.1463 4278190335
0.069313914 0.045571979 0.1461 4278190335
0.069656596 0.045571979 0.1461 4278190335
0.069807626 0.045447208 0.14569999 4278190335
0.070053078 0.045384824 0.14549999 4278190335
0.070297591 0.045322441 0.1453 4278190335
0.070492551 0.045228865 0.145 4278190335
0.070783801 0.045197669 0.14489999 4278190335
0.071025498 0.045135286 0.14469999 4278190335
0.071266264 0.045072906 0.1445 4278190335
0.071605191 0.045072906 0.1445 4278190335
0.071894333 0.04504171 0.1444 4278190335
0.072233036 0.04504171 0.1444 4278190335
0.072571725 0.04504171 0.1444 4278190335
0.072960906 0.045072906 0.1445 4278190335
0.073350564 0.045104094 0.14459999 4278190335
0.073740683 0.045135286 0.14469999 4278190335
0.074182481 0.045197669 0.14489999 4278190335
0.074522339 0.045197669 0.14489999 4278190335
0.074965544 0.045260057 0.1451 4278190335
0.07535778 0.045291249 0.1452 4278190335
0.075802624 0.045353636 0.1454 4278190335
0.076196022 0.045384824 0.14549999 4278190335
0.076589905 0.045416016 0.14559999 4278190335
0.07693141 0.045416016 0.14559999 4278190335
0.077325992 0.045447208 0.14569999 4278190335
0.077614427 0.045416016 0.14559999 4278190335
0.077955939 0.045416016 0.14559999 4278190335
0.078297444 0.045416016 0.14559999 4278190335
0.078584947 0.045384824 0.14549999 4278190335
0.078926221 0.045384824 0.14549999 4278190335
0.079104066 0.045291249 0.1452 4278190335
0.079389915 0.045260057 0.1451 4278190335
0.079620361 0.045197669 0.14489999 4278190335
0.079960227 0.045197669 0.14489999 4278190335
0.08013384 0.045104094 0.14459999 4278190335
0.080417357 0.045072906 0.1445 4278190335
0.080700397 0.04504171 0.1444 4278190335
0.080926843 0.044979326 0.1442 4278190335
0.081208721 0.044948131 0.1441 4278190335
0.081433527 0.044885747 0.14389999 4278190335
0.081771038 0.044885747 0.14389999 4278190335
0.082051508 0.044854555 0.14379999 4278190335
0.082331501 0.044823367 0.1437 4278190335
0.082668565 0.044823367 0.1437 4278190335
0.082947843 0.044792172 0.1436 4278190335
0.083342671 0.044823367 0.1437 4278190335
0.083679713 0.044823367 0.1437 4278190335
0.08401677 0.044823367 0.1437 4278190335
0.084353819 0.044823367 0.1437 4278190335
0.084690876 0.044823367 0.1437 4278190335
0.085087091 0.044854555 0.14379999 4278190335
0.085483789 0.044885747 0.14389999 4278190335
0.085821308 0.044885747 0.14389999 4278190335
0.086158834 0.044885747 0.14389999 4278190335
0.086556457 0.044916939 0.14399999 4278190335
0.086894222 0.044916939 0.14399999 4278190335
0.087353133 0.044979326 0.1442 4278190335
0.015088791 0.052828576 0.1681 4278190335
0.015483074 0.052828576 0.1681 4278190335
0.015867911 0.052797146 0.168 4278190335
0.016252281 0.05276572 0.1679 4278190335
0.016626267 0.052702866 0.16769999 4278190335
0.016989168 0.052608587 0.1674 4278190335
0.017371425 0.05257716 0.1673 4278190335
0.017721361 0.05245145 0.16689999 4278190335
0.018759908 0.052074328 0.16569999 4278190335
0.019113895 0.051980048 0.1654 4278190335
0.019454682 0.051854338 0.16499999 4278190335
0.019817647 0.051791489 0.1648 4278190335
0.020191928 0.051760063 0.1647 4278190335
0.020565743 0.051728636 0.1646 4278190335
0.020939089 0.051697206 0.1645 4278190335
0.021286037 0.051602926 0.16419999 4278190335
0.021671174 0.051602926 0.16419999 4278190335
0.022056311 0.051602926 0.16419999 4278190335
0.022427779 0.051571496 0.16409999 4278190335
0.022812681 0.051571496 0.16409999 4278190335
0.023197584 0.051571496 0.16409999 4278190335
0.023582485 0.051571496 0.16409999 4278190335
0.023967383 0.051571496 0.16409999 4278190335
0.024352286 0.051571496 0.16409999 4278190335
0.024752263 0.051602926 0.16419999 4278190335
0.025137398 0.051602926 0.16419999 4278190335
0.025506992 0.051571496 0.16409999 4278190335
