# .PCD v0.7 - Point Cloud Data file format
VERSION 0.7
FIELDS x y z rgb
SIZE 4 4 4 4
TYPE F F F U
COUNT 1 1 1 1
WIDTH 1127
HEIGHT 1
VIEWPOINT 0 0 0 1 0 0 0
POINTS 1127
DATA ascii
-33.554211 -20.095083 37.574001 4278190335
-34.52776 -20.732582 38.766003 4278190335
-35.565895 -21.412331 40.037003 4278190335
-36.675148 -22.138607 41.395 4278190335
-37.208088 -22.519926 42.108002 4278190335
-38.434784 -23.324287 43.612003 4278190335
-39.029491 -23.748394 44.405003 4278190335
-39.646774 -24.188545 45.228001 4278190335
-39.540691 -24.188545 45.228001 4278190335
-40.178341 -24.644743 46.081001 4278190335
-40.070259 -24.644743 46.081001 4278190335
-39.962177 -24.644743 46.081001 4278190335
-39.854092 -24.644743 46.081001 4278190335
-39.010273 -24.188545 45.228001 4278190335
-38.904186 -24.188545 45.228001 4278190335
-38.09211 -23.748394 44.405003 4278190335
-36.655106 -22.915155 42.847004 4278190335
-35.924133 -22.519926 42.108002 4278190335
-34.631699 -21.769585 40.705002 4278190335
-33.96946 -21.412331 40.037003 4278190335
-33.329815 -21.067375 39.392002 4278190335
-32.19875 -20.409019 38.161003 4278190335
-31.615328 -20.095083 37.574001 4278190335
-31.048929 -19.790239 37.004002 4278190335
-30.500265 -19.495024 36.452003 4278190335
-29.967535 -19.208363 35.916 4278190335
-19.826866 -13.465536 25.178001 4278190335
-19.973513 -13.605656 25.440001 4278190335
-20.123625 -13.748986 25.708002 4278190335
-20.063326 -13.748986 25.708002 4278190335
-20.003027 -13.748986 25.708002 4278190335
-19.942728 -13.748986 25.708002 4278190335
-20.094339 -13.895525 25.982 4278190335
-20.24852 -14.044739 26.261002 4278190335
-20.186926 -14.044739 26.261002 4278190335
-20.12533 -14.044739 26.261002 4278190335
-20.063734 -14.044739 26.261002 4278190335
-20.219973 -14.197694 26.547001 4278190335
-20.157707 -14.197694 26.547001 4278190335
-20.09544 -14.197694 26.547001 4278190335
-20.033175 -14.197694 26.547001 4278190335
-19.970907 -14.197694 26.547001 4278190335
-19.90864 -14.197694 26.547001 4278190335
-19.846373 -14.197694 26.547001 4278190335
-19.784105 -14.197694 26.547001 4278190335
-19.938025 -14.353326 26.838001 4278190335
-20.32163 -14.675818 27.441002 4278190335
-20.964476 -15.18817 28.399002 4278190335
-22.465258 -16.327322 30.529001 4278190335
-24.881754 -18.141409 33.921001 4278190335
-34.789867 -25.611149 47.888 4278190335
-38.446686 -28.394855 53.093002 4278190335
-40.064568 -29.685896 55.507004 4278190335
-40.862453 -30.375803 56.797001 4278190335
-40.729237 -30.375803 56.797001 4278190335
-40.596016 -30.375803 56.797001 4278190335
-39.543789 -29.685896 55.507004 4278190335
-39.413597 -29.685896 55.507004 4278190335
-38.410076 -29.025936 54.273003 4278190335
-37.450436 -28.394855 53.093002 4278190335
-36.532185 -27.79105 51.964001 4278190335
-35.651459 -27.211845 50.881001 4278190335
-34.807243 -26.656712 49.843002 4278190335
-33.996433 -26.123501 48.846001 4278190335
-32.578503 -25.118587 46.967003 4278190335
-30.697226 -23.748394 44.405003 4278190335
-29.01054 -22.519926 42.108002 4278190335
-27.948462 -21.769585 40.705002 4278190335
-26.954548 -21.067375 39.392002 4278190335
-26.022709 -20.409019 38.161003 4278190335
-25.933201 -20.409019 38.161003 4278190335
-25.060143 -19.790239 37.004002 4278190335
-24.600813 -19.495024 36.452003 4278190335
-24.515314 -19.495024 36.452003 4278190335
-24.070589 -19.208363 35.916 4278190335
-23.986347 -19.208363 35.916 4278190335
-23.55538 -18.929724 35.395 4278190335
-23.472359 -18.929724 35.395 4278190335
-23.389339 -18.929724 35.395 4278190335
-23.306318 -18.929724 35.395 4278190335
-23.565138 -19.208363 35.916 4278190335
-23.83132 -19.495024 36.452003 4278190335
-24.105406 -19.790239 37.004002 4278190335
-24.38859 -20.095083 37.574001 4278190335
-24.680092 -20.409019 38.161003 4278190335
-25.383829 -21.067375 39.392002 4278190335
-25.705553 -21.412331 40.037003 4278190335
-26.038963 -21.769585 40.705002 4278190335
-26.383263 -22.138607 41.395 4278190335
-36.982788 -20.641657 38.766003 4278190335
-36.316109 -20.319511 38.161003 4278190335
-36.800934 -20.641657 38.766003 4278190335
-36.137093 -20.319511 38.161003 4278190335
-35.493095 -20.006952 37.574001 4278190335
-34.262234 -19.409523 36.452003 4278190335
-33.674191 -19.124121 35.916 4278190335
-32.630394 -18.57781 34.890003 4278190335
-31.644588 -18.061846 33.921001 4278190335
-31.13232 -17.814249 33.456001 4278190335
-31.053848 -17.814249 33.456001 4278190335
-29.843996 -17.339289 32.564003 4278190335
-29.691236 -17.339289 32.564003 4278190335
-29.614859 -17.339289 32.564003 4278190335
-29.538477 -17.339289 32.564003 4278190335
-29.860184 -17.573574 33.004002 4278190335
-30.190657 -17.814249 33.456001 4278190335
-30.53071 -18.061846 33.921001 4278190335
-31.321026 -18.57781 34.890003 4278190335
-32.157829 -19.124121 35.916 4278190335
-33.045193 -19.703445 37.004002 4278190335
-33.988907 -20.319511 38.161003 4278190335
-34.992924 -20.974979 39.392002 4278190335
-35.471989 -21.318422 40.037003 4278190335
-36.578056 -22.041512 41.395 4278190335
-37.760597 -22.814657 42.847004 4278190335
-38.332489 -23.221994 43.612003 4278190335
-38.925339 -23.644243 44.405003 4278190335
-39.540691 -24.082462 45.228001 4278190335
-40.178341 -24.536657 46.081001 4278190335
-40.070259 -24.536657 46.081001 4278190335
-39.962177 -24.536657 46.081001 4278190335
-39.854092 -24.536657 46.081001 4278190335
-39.010273 -24.082462 45.228001 4278190335
-38.904186 -24.082462 45.228001 4278190335
-38.09211 -23.644243 44.405003 4278190335
-36.655106 -22.814657 42.847004 4278190335
-35.924133 -22.421164 42.108002 4278190335
-35.825367 -22.421164 42.108002 4278190335
-35.726601 -22.421164 42.108002 4278190335
-35.024563 -22.041512 41.395 4278190335
-34.927467 -22.041512 41.395 4278190335
-33.687737 -21.318422 40.037003 4278190335
-33.052628 -20.974979 39.392002 4278190335
-19.682938 -13.269634 24.921001 4278190335
-19.826866 -13.40648 25.178001 4278190335
-19.973513 -13.545986 25.440001 4278190335
-19.913841 -13.545986 25.440001 4278190335
-20.063326 -13.688687 25.708002 4278190335
-20.003027 -13.688687 25.708002 4278190335
-20.155281 -13.834583 25.982 4278190335
-20.094339 -13.834583 25.982 4278190335
-20.24852 -13.983142 26.261002 4278190335
-20.186926 -13.983142 26.261002 4278190335
-20.12533 -13.983142 26.261002 4278190335
-20.063734 -13.983142 26.261002 4278190335
-20.002136 -13.983142 26.261002 4278190335
-19.940542 -13.983142 26.261002 4278190335
-19.878946 -13.983142 26.261002 4278190335
-19.81735 -13.983142 26.261002 4278190335
-19.545864 -13.834583 25.982 4278190335
-19.484924 -13.834583 25.982 4278190335
-19.423983 -13.834583 25.982 4278190335
-19.363041 -13.834583 25.982 4278190335
-19.72184 -14.135427 26.547001 4278190335
-20.32163 -14.611455 27.441002 4278190335
-21.211037 -15.299403 28.733002 4278190335
-22.749302 -16.461248 30.915001 4278190335
-25.231642 -18.315836 34.398003 4278190335
-38.446686 -28.270325 53.093002 4278190335
-40.995674 -30.242584 56.797001 4278190335
-40.862453 -30.242584 56.797001 4278190335
-40.729237 -30.242584 56.797001 4278190335
-39.673985 -29.555702 55.507004 4278190335
-38.664673 -28.898636 54.273003 4278190335
-38.537376 -28.898636 54.273003 4278190335
-37.574966 -28.270325 53.093002 4278190335
-36.654068 -27.669167 51.964001 4278190335
-35.770802 -27.092503 50.881001 4278190335
-34.924152 -26.539803 49.843002 4278190335
-33.441994 -25.498827 47.888 4278190335
-32.688663 -25.008425 46.967003 4278190335
-31.372248 -24.082462 45.228001 4278190335
-30.149023 -23.221994 43.612003 4278190335
-29.01054 -22.421164 42.108002 4278190335
-27.489805 -21.318422 40.037003 4278190335
-26.954548 -20.974979 39.392002 4278190335
-26.022709 -20.319511 38.161003 4278190335
-25.534292 -20.006952 37.574001 4278190335
-25.060143 -19.703445 37.004002 4278190335
-24.600813 -19.409523 36.452003 4278190335
-24.515314 -19.409523 36.452003 4278190335
-24.429815 -19.409523 36.452003 4278190335
-23.986347 -19.124121 35.916 4278190335
-24.258816 -19.409523 36.452003 4278190335
-23.817862 -19.124121 35.916 4278190335
-23.73362 -19.124121 35.916 4278190335
-23.649378 -19.124121 35.916 4278190335
-23.916819 -19.409523 36.452003 4278190335
-23.83132 -19.409523 36.452003 4278190335
-24.105406 -19.703445 37.004002 4278190335
-24.38859 -20.006952 37.574001 4278190335
-24.680092 -20.319511 38.161003 4278190335
-24.980442 -20.641657 38.766003 4278190335
-25.291433 -20.974979 39.392002 4278190335
-25.611645 -21.318422 40.037003 4278190335
-25.943489 -21.674109 40.705002 4278190335
-35.845615 -19.918823 37.574001 4278190335
-35.757484 -19.918823 37.574001 4278190335
-35.669353 -19.918823 37.574001 4278190335
-35.041454 -19.616652 37.004002 4278190335
-34.433231 -19.324024 36.452003 4278190335
-33.842674 -19.039879 35.916 4278190335
-33.26873 -18.763683 35.395 4278190335
-32.712234 -18.495974 34.890003 4278190335
-31.72415 -17.982285 33.921001 4278190335
-31.644588 -17.982285 33.921001 4278190335
-31.13232 -17.735777 33.456001 4278190335
-30.634302 -17.496162 33.004002 4278190335
-30.55689 -17.496162 33.004002 4278190335
-30.479479 -17.496162 33.004002 4278190335
-30.402067 -17.496162 33.004002 4278190335
-30.324656 -17.496162 33.004002 4278190335
-30.269129 -17.735777 33.456001 4278190335
-30.610273 -17.982285 33.921001 4278190335
-30.960037 -18.235153 34.398003 4278190335
-31.321026 -18.495974 34.890003 4278190335
-32.157829 -19.039879 35.916 4278190335
-32.55225 -19.324024 36.452003 4278190335
-33.46608 -19.918823 37.574001 4278190335
-34.436836 -20.550728 38.766003 4278190335
-35.471989 -21.224514 40.037003 4278190335
-35.968349 -21.578636 40.705002 4278190335
-37.109322 -22.322395 42.108002 4278190335
-37.660095 -22.714159 42.847004 4278190335
-38.925339 -23.540089 44.405003 4278190335
-38.821182 -23.540089 44.405003 4278190335
-39.434608 -23.976377 45.228001 4278190335
-39.328522 -23.976377 45.228001 4278190335
-39.962177 -24.428574 46.081001 4278190335
-39.854092 -24.428574 46.081001 4278190335
-39.010273 -23.976377 45.228001 4278190335
-39.63792 -24.428574 46.081001 4278190335
-38.798107 -23.976377 45.228001 4278190335
-37.987957 -23.540089 44.405003 4278190335
-37.883804 -23.540089 44.405003 4278190335
-37.779648 -23.540089 44.405003 4278190335
-37.675495 -23.540089 44.405003 4278190335
-37.571342 -23.540089 44.405003 4278190335
-37.46719 -23.540089 44.405003 4278190335
-19.682938 -13.211182 24.921001 4278190335
-19.826866 -13.347424 25.178001 4278190335
-19.973513 -13.486316 25.440001 4278190335
-19.913841 -13.486316 25.440001 4278190335
-20.063326 -13.628388 25.708002 4278190335
-20.003027 -13.628388 25.708002 4278190335
-19.942728 -13.628388 25.708002 4278190335
-20.094339 -13.773643 25.982 4278190335
-20.24852 -13.921547 26.261002 4278190335
-20.186926 -13.921547 26.261002 4278190335
-20.12533 -13.921547 26.261002 4278190335
-20.063734 -13.921547 26.261002 4278190335
-19.789633 -13.773643 25.982 4278190335
-19.728689 -13.773643 25.982 4278190335
-19.878946 -13.921547 26.261002 4278190335
-19.81735 -13.921547 26.261002 4278190335
-19.545864 -13.773643 25.982 4278190335
-19.484924 -13.773643 25.982 4278190335
-19.423983 -13.773643 25.982 4278190335
-19.363041 -13.773643 25.982 4278190335
-19.938025 -14.227427 26.838001 4278190335
-20.552687 -14.712489 27.753002 4278190335
-21.721878 -15.598853 29.425001 4278190335
-23.340202 -16.814425 31.718002 4278190335
-25.962963 -18.763683 35.395 4278190335
-29.274057 -21.224514 40.037003 4278190335
-39.30117 -28.771338 54.273003 4278190335
-41.97226 -30.82662 58.150002 4278190335
-40.862453 -30.109365 56.797001 4278190335
-40.729237 -30.109365 56.797001 4278190335
-39.673985 -29.425508 55.507004 4278190335
-37.824028 -28.145794 53.093002 4278190335
-37.699497 -28.145794 53.093002 4278190335
-36.775951 -27.547285 51.964001 4278190335
-35.890144 -26.97316 50.881001 4278190335
-35.041061 -26.422895 49.843002 4278190335
-33.554314 -25.386505 47.888 4278190335
-32.798824 -24.898264 46.967003 4278190335
-32.072014 -24.428574 46.081001 4278190335
-30.801378 -23.540089 44.405003 4278190335
-29.62018 -22.714159 42.847004 4278190335
-28.519314 -21.94442 41.395 4278190335
-27.489805 -21.224514 40.037003 4278190335
-26.954548 -20.882584 39.392002 4278190335
-26.43527 -20.550728 38.766003 4278190335
-25.933201 -20.230003 38.161003 4278190335
-25.446159 -19.918823 37.574001 4278190335
-24.973345 -19.616652 37.004002 4278190335
-24.886551 -19.616652 37.004002 4278190335
-24.799757 -19.616652 37.004002 4278190335
-24.712965 -19.616652 37.004002 4278190335
-24.258816 -19.324024 36.452003 4278190335
-24.173315 -19.324024 36.452003 4278190335
-24.452583 -19.616652 37.004002 4278190335
-24.002319 -19.324024 36.452003 4278190335
-23.916819 -19.324024 36.452003 4278190335
-24.192202 -19.616652 37.004002 4278190335
-24.476721 -19.918823 37.574001 4278190335
-24.38859 -19.918823 37.574001 4278190335
-24.680092 -20.230003 38.161003 4278190335
-24.980442 -20.550728 38.766003 4278190335
-24.889513 -20.550728 38.766003 4278190335
-25.199039 -20.882584 39.392002 4278190335
-25.106642 -20.882584 39.392002 4278190335
-34.689732 -19.238527 36.452003 4278190335
-34.095402 -18.955635 35.916 4278190335
-33.517788 -18.680664 35.395 4278190335
-32.957741 -18.414137 34.890003 4278190335
-32.412304 -18.154472 34.398003 4278190335
-31.883276 -17.902721 33.921001 4278190335
-31.803713 -17.902721 33.921001 4278190335
-31.289265 -17.657305 33.456001 4278190335
-31.210793 -17.657305 33.456001 4278190335
-30.711716 -17.418749 33.004002 4278190335
-30.634302 -17.418749 33.004002 4278190335
-30.55689 -17.418749 33.004002 4278190335
-30.479479 -17.418749 33.004002 4278190335
-30.818434 -17.657305 33.456001 4278190335
-31.121399 -18.154472 34.398003 4278190335
-31.040716 -18.154472 34.398003 4278190335
-31.402863 -18.414137 34.890003 4278190335
-31.774366 -18.680664 35.395 4278190335
-32.157829 -18.955635 35.916 4278190335
-33.045193 -19.529858 37.004002 4278190335
-33.46608 -19.83069 37.574001 4278190335
-34.436836 -20.459803 38.766003 4278190335
-34.900532 -20.79019 39.392002 4278190335
-35.968349 -21.483162 40.705002 4278190335
-37.109322 -22.223633 42.108002 4278190335
-37.660095 -22.613659 42.847004 4278190335
-38.230194 -23.017408 43.612003 4278190335
-38.821182 -23.435934 44.405003 4278190335
-39.434608 -23.870295 45.228001 4278190335
-39.328522 -23.870295 45.228001 4278190335
-39.962177 -24.320488 46.081001 4278190335
-39.854092 -24.320488 46.081001 4278190335
-39.74601 -24.320488 46.081001 4278190335
-39.63792 -24.320488 46.081001 4278190335
-39.529839 -24.320488 46.081001 4278190335
-39.421753 -24.320488 46.081001 4278190335
-39.313671 -24.320488 46.081001 4278190335
-39.205585 -24.320488 46.081001 4278190335
-39.0975 -24.320488 46.081001 4278190335
-39.739067 -24.788099 46.967003 4278190335
-40.406006 -25.274181 47.888 4278190335
-40.293686 -25.274181 47.888 4278190335
-20.03318 -13.426645 25.440001 4278190335
-19.973513 -13.426645 25.440001 4278190335
-19.913841 -13.426645 25.440001 4278190335
-20.063326 -13.568089 25.708002 4278190335
-20.003027 -13.568089 25.708002 4278190335
-19.942728 -13.568089 25.708002 4278190335
-20.094339 -13.7127 25.982 4278190335
-20.033398 -13.7127 25.982 4278190335
-19.972456 -13.7127 25.982 4278190335
-20.12533 -13.85995 26.261002 4278190335
-20.063734 -13.85995 26.261002 4278190335
-20.002136 -13.85995 26.261002 4278190335
-19.728689 -13.7127 25.982 4278190335
-19.667747 -13.7127 25.982 4278190335
-19.606808 -13.7127 25.982 4278190335
-19.545864 -13.7127 25.982 4278190335
-19.27944 -13.568089 25.708002 4278190335
-19.219141 -13.568089 25.708002 4278190335
-19.363041 -13.7127 25.982 4278190335
-19.938025 -14.164477 26.838001 4278190335
-20.788923 -14.815754 28.072001 4278190335
-21.986898 -15.71931 29.784002 4278190335
-23.962748 -17.186529 32.564003 4278190335
-26.738297 -19.238527 36.452003 4278190335
-40.194756 -29.295315 55.507004 4278190335
-40.995674 -29.976145 56.797001 4278190335
-41.835869 -30.690229 58.150002 4278190335
-39.804176 -29.295315 55.507004 4278190335
-39.673985 -29.295315 55.507004 4278190335
-37.824028 -28.021259 53.093002 4278190335
-36.897835 -27.4254 51.964001 4278190335
-36.009487 -26.853817 50.881001 4278190335
-35.15797 -26.305984 49.843002 4278190335
-34.340137 -25.779791 48.846001 4278190335
-32.908989 -24.788099 46.967003 4278190335
-32.180096 -24.320488 46.081001 4278190335
-30.905531 -23.435934 44.405003 4278190335
-29.720678 -22.613659 42.847004 4278190335
-28.616407 -21.847324 41.395 4278190335
-28.043934 -21.483162 40.705002 4278190335
-27.046942 -20.79019 39.392002 4278190335
-26.526197 -20.459803 38.766003 4278190335
-26.022709 -20.140495 38.161003 4278190335
-25.933201 -20.140495 38.161003 4278190335
-25.446159 -19.83069 37.574001 4278190335
-25.358028 -19.83069 37.574001 4278190335
-25.269899 -19.83069 37.574001 4278190335
-25.181768 -19.83069 37.574001 4278190335
-25.093636 -19.83069 37.574001 4278190335
-25.005505 -19.83069 37.574001 4278190335
-24.917374 -19.83069 37.574001 4278190335
-24.829245 -19.83069 37.574001 4278190335
-24.741114 -19.83069 37.574001 4278190335
-24.652981 -19.83069 37.574001 4278190335
-24.56485 -19.83069 37.574001 4278190335
-24.476721 -19.83069 37.574001 4278190335
-24.38859 -19.83069 37.574001 4278190335
-24.680092 -20.140495 38.161003 4278190335
-24.590584 -20.140495 38.161003 4278190335
-24.501076 -20.140495 38.161003 4278190335
-24.41157 -20.140495 38.161003 4278190335
-24.707659 -20.459803 38.766003 4278190335
-33.683826 -18.597643 35.395 4278190335
-33.12141 -18.332304 34.890003 4278190335
-32.121964 -17.823158 33.921001 4278190335
-31.176188 -17.341337 33.004002 4278190335
-30.684175 -17.110149 32.564003 4278190335
-29.812618 -16.665634 31.718002 4278190335
-29.356625 -16.451782 31.311001 4278190335
-29.283184 -16.451782 31.311001 4278190335
-28.840317 -16.243711 30.915001 4278190335
-28.767805 -16.243711 30.915001 4278190335
-28.695293 -16.243711 30.915001 4278190335
-29.366243 -16.665634 31.718002 4278190335
-29.291849 -16.665634 31.718002 4278190335
-30.402067 -17.341337 33.004002 4278190335
-30.739962 -17.578833 33.456001 4278190335
-34.436836 -20.368874 38.766003 4278190335
-34.900532 -20.697796 39.392002 4278190335
-35.968349 -21.387686 40.705002 4278190335
-36.480961 -21.750233 41.395 4278190335
-37.660095 -22.513161 42.847004 4278190335
-38.230194 -22.915115 43.612003 4278190335
-38.821182 -23.331781 44.405003 4278190335
-39.434608 -23.76421 45.228001 4278190335
-39.328522 -23.76421 45.228001 4278190335
-39.962177 -24.212404 46.081001 4278190335
-39.854092 -24.212404 46.081001 4278190335
-39.74601 -24.212404 46.081001 4278190335
-40.40004 -24.677937 46.967003 4278190335
-41.079941 -25.161858 47.888 4278190335
-40.967617 -25.161858 47.888 4278190335
-41.672607 -25.665222 48.846001 4278190335
-44.797783 -27.896729 53.093002 4278190335
-46.704426 -29.165121 55.507004 4278190335
-46.574234 -29.165121 55.507004 4278190335
-20.003027 -13.507791 25.708002 4278190335
-20.094339 -13.651758 25.982 4278190335
-20.033398 -13.651758 25.982 4278190335
-20.186926 -13.798355 26.261002 4278190335
-20.12533 -13.798355 26.261002 4278190335
-20.063734 -13.798355 26.261002 4278190335
-20.002136 -13.798355 26.261002 4278190335
-19.940542 -13.798355 26.261002 4278190335
-19.878946 -13.798355 26.261002 4278190335
-19.81735 -13.798355 26.261002 4278190335
-19.545864 -13.651758 25.982 4278190335
-37.751015 -27.303516 51.964001 4278190335
-40.194756 -29.165121 55.507004 4278190335
-40.995674 -29.842926 56.797001 4278190335
-40.862453 -29.842926 56.797001 4278190335
-39.804176 -29.165121 55.507004 4278190335
-38.791973 -28.516739 54.273003 4278190335
-37.019714 -27.303516 51.964001 4278190335
-36.897835 -27.303516 51.964001 4278190335
-36.009487 -26.734476 50.881001 4278190335
-34.454712 -25.665222 48.846001 4278190335
-33.666641 -25.161858 47.888 4278190335
-32.288181 -24.212404 46.081001 4278190335
-31.584415 -23.76421 45.228001 4278190335
-30.353609 -22.915115 43.612003 4278190335
-29.208071 -22.124865 42.108002 4278190335
-28.616407 -21.750233 41.395 4278190335
-27.583714 -21.036697 40.037003 4278190335
-27.046942 -20.697796 39.392002 4278190335
-26.526197 -20.368874 38.766003 4278190335
-26.022709 -20.050987 38.161003 4278190335
-25.933201 -20.050987 38.161003 4278190335
-25.843693 -20.050987 38.161003 4278190335
-25.754187 -20.050987 38.161003 4278190335
-25.664679 -20.050987 38.161003 4278190335
-25.575171 -20.050987 38.161003 4278190335
-25.485662 -20.050987 38.161003 4278190335
-25.396154 -20.050987 38.161003 4278190335
-25.306646 -20.050987 38.161003 4278190335
-25.217138 -20.050987 38.161003 4278190335
-25.12763 -20.050987 38.161003 4278190335
-25.038124 -20.050987 38.161003 4278190335
-24.948616 -20.050987 38.161003 4278190335
-24.859108 -20.050987 38.161003 4278190335
-24.7696 -20.050987 38.161003 4278190335
-24.300457 -19.742559 37.574001 4278190335
-24.212326 -19.742559 37.574001 4278190335
-23.75823 -19.443064 37.004002 4278190335
-23.671436 -19.443064 37.004002 4278190335
-23.947933 -19.742559 37.574001 4278190335
-40.070259 -24.104319 46.081001 4278190335
-39.962177 -24.104319 46.081001 4278190335
-20.155281 -13.590816 25.982 4278190335
-20.310118 -13.736758 26.261002 4278190335
-20.24852 -13.736758 26.261002 4278190335
-20.186926 -13.736758 26.261002 4278190335
-20.12533 -13.736758 26.261002 4278190335
-20.28224 -13.88636 26.547001 4278190335
-20.002136 -13.736758 26.261002 4278190335
-19.940542 -13.736758 26.261002 4278190335
-19.878946 -13.736758 26.261002 4278190335
-31.429161 -22.412663 42.847004 4278190335
-33.693279 -24.104319 46.081001 4278190335
-36.327053 -26.07217 49.843002 4278190335
-38.571217 -27.772198 53.093002 4278190335
-41.128891 -29.709707 56.797001 4278190335
-40.995674 -29.709707 56.797001 4278190335
-40.862453 -29.709707 56.797001 4278190335
-39.804176 -29.034927 55.507004 4278190335
-37.948559 -27.772198 53.093002 4278190335
-37.019714 -27.181633 51.964001 4278190335
-36.128834 -26.615133 50.881001 4278190335
-35.274876 -26.07217 49.843002 4278190335
-34.454712 -25.550652 48.846001 4278190335
-33.666641 -25.049536 47.888 4278190335
-32.288181 -24.104319 46.081001 4278190335
-31.009684 -23.227629 44.405003 4278190335
-30.353609 -22.812822 43.612003 4278190335
-29.208071 -22.026098 42.108002 4278190335
-28.616407 -21.653139 41.395 4278190335
-27.583714 -20.942789 40.037003 4278190335
-27.046942 -20.605398 39.392002 4278190335
-26.526197 -20.277948 38.766003 4278190335
-26.43527 -20.277948 38.766003 4278190335
-26.344343 -20.277948 38.766003 4278190335
-26.253416 -20.277948 38.766003 4278190335
-26.162491 -20.277948 38.766003 4278190335
-26.071562 -20.277948 38.766003 4278190335
-25.980637 -20.277948 38.766003 4278190335
-25.889708 -20.277948 38.766003 4278190335
-25.798782 -20.277948 38.766003 4278190335
-25.707857 -20.277948 38.766003 4278190335
-26.030596 -20.605398 39.392002 4278190335
-25.526003 -20.277948 38.766003 4278190335
-25.435076 -20.277948 38.766003 4278190335
-24.948616 -19.961481 38.161003 4278190335
-24.859108 -19.961481 38.161003 4278190335
-24.38859 -19.654428 37.574001 4278190335
-24.300457 -19.654428 37.574001 4278190335
-23.845024 -19.35627 37.004002 4278190335
-23.403824 -19.067528 36.452003 4278190335
-22.975443 -18.787151 35.916 4278190335
-22.891201 -18.787151 35.916 4278190335
-20.43331 -13.675162 26.261002 4278190335
-20.310118 -13.675162 26.261002 4278190335
-20.469042 -13.824094 26.547001 4278190335
-20.406775 -13.824094 26.547001 4278190335
-20.344507 -13.824094 26.547001 4278190335
-20.28224 -13.824094 26.547001 4278190335
-20.44162 -13.975629 26.838001 4278190335
-20.157707 -13.824094 26.547001 4278190335
-20.315722 -13.975629 26.838001 4278190335
-31.529659 -22.312162 42.847004 4278190335
-33.801365 -23.996235 46.081001 4278190335
-35.714977 -25.436081 48.846001 4278190335
-37.872898 -27.05975 51.964001 4278190335
-39.428467 -28.26214 54.273003 4278190335
-41.128891 -29.576488 56.797001 4278190335
-40.995674 -29.576488 56.797001 4278190335
-40.862453 -29.576488 56.797001 4278190335
-38.919273 -28.26214 54.273003 4278190335
-37.948559 -27.647667 53.093002 4278190335
-36.248177 -26.495789 50.881001 4278190335
-36.128834 -26.495789 50.881001 4278190335
-35.274876 -25.955261 49.843002 4278190335
-33.778961 -24.937212 47.888 4278190335
-33.01915 -24.457613 46.967003 4278190335
-31.690498 -23.552044 45.228001 4278190335
-30.455902 -22.710529 43.612003 4278190335
-29.821177 -22.312162 42.847004 4278190335
-29.208071 -21.927334 42.108002 4278190335
-28.616407 -21.556047 41.395 4278190335
-27.583714 -20.848881 40.037003 4278190335
-27.046942 -20.513004 39.392002 4278190335
-26.954548 -20.513004 39.392002 4278190335
-26.43527 -20.187021 38.766003 4278190335
-26.344343 -20.187021 38.766003 4278190335
-26.253416 -20.187021 38.766003 4278190335
-26.162491 -20.187021 38.766003 4278190335
-26.492571 -20.513004 39.392002 4278190335
-26.400175 -20.513004 39.392002 4278190335
-26.307781 -20.513004 39.392002 4278190335
-26.215384 -20.513004 39.392002 4278190335
-26.550724 -20.848881 40.037003 4278190335
-26.456816 -20.848881 40.037003 4278190335
-25.9382 -20.513004 39.392002 4278190335
-25.435076 -20.187021 38.766003 4278190335
-25.344149 -20.187021 38.766003 4278190335
-24.859108 -19.871973 38.161003 4278190335
-24.38859 -19.566296 37.574001 4278190335
-23.931818 -19.269476 37.004002 4278190335
-23.143927 -18.702909 35.916 4278190335
-22.72518 -18.431602 35.395 4278190335
-22.319115 -18.168631 34.890003 4278190335
-22.237276 -18.168631 34.890003 4278190335
-25.162821 -13.91268 26.838001 4278190335
-24.827719 -13.761827 26.547001 4278190335
-24.765451 -13.761827 26.547001 4278190335
-20.216225 -13.468934 25.982 4278190335
-20.469042 -13.761827 26.547001 4278190335
-20.406775 -13.761827 26.547001 4278190335
-20.567518 -13.91268 26.838001 4278190335
-20.28224 -13.761827 26.547001 4278190335
-20.219973 -13.761827 26.547001 4278190335
-20.37867 -13.91268 26.838001 4278190335
-20.315722 -13.91268 26.838001 4278190335
-20.707813 -14.225272 27.441002 4278190335
-20.878162 -14.387012 27.753002 4278190335
-36.560867 -25.838352 49.843002 4278190335
-37.994781 -26.937868 51.964001 4278190335
-39.555767 -28.134842 54.273003 4278190335
-40.324951 -28.774542 55.507004 4278190335
-40.194756 -28.774542 55.507004 4278190335
-40.064568 -28.774542 55.507004 4278190335
-39.046574 -28.134842 54.273003 4278190335
-38.073093 -27.523134 53.093002 4278190335
-37.141598 -26.937868 51.964001 4278190335
-35.508694 -25.838352 49.843002 4278190335
-34.683849 -25.321512 48.846001 4278190335
-34.569279 -25.321512 48.846001 4278190335
-33.778961 -24.82489 47.888 4278190335
-32.396267 -23.888151 46.081001 4278190335
-31.113838 -23.019321 44.405003 4278190335
-30.455902 -22.608234 43.612003 4278190335
-29.821177 -22.211664 42.847004 4278190335
-29.208071 -21.828568 42.108002 4278190335
-28.616407 -21.458952 41.395 4278190335
-27.583714 -20.754974 40.037003 4278190335
-27.046942 -20.420609 39.392002 4278190335
-26.954548 -20.420609 39.392002 4278190335
-26.86215 -20.420609 39.392002 4278190335
-26.769756 -20.420609 39.392002 4278190335
-26.677361 -20.420609 39.392002 4278190335
-26.584967 -20.420609 39.392002 4278190335
-26.492571 -20.420609 39.392002 4278190335
-26.400175 -20.420609 39.392002 4278190335
-26.738541 -20.754974 40.037003 4278190335
-26.644632 -20.754974 40.037003 4278190335
-26.993711 -21.101261 40.705002 4278190335
-26.898237 -21.101261 40.705002 4278190335
-26.362909 -20.754974 40.037003 4278190335
-25.845806 -20.420609 39.392002 4278190335
-25.344149 -20.096094 38.766003 4278190335
-24.859108 -19.782465 38.161003 4278190335
-24.018612 -19.182682 37.004002 4278190335
-23.57482 -18.896528 36.452003 4278190335
-22.808199 -18.348583 35.395 4278190335
-22.400948 -18.086796 34.890003 4278190335
-21.699244 -17.584471 33.921001 4278190335
-21.61968 -17.584471 33.921001 4278190335
-20.003027 -13.266595 25.708002 4278190335
-20.094339 -13.407992 25.982 4278190335
-20.24852 -13.55197 26.261002 4278190335
-20.406775 -13.69956 26.547001 4278190335
-20.344507 -13.69956 26.547001 4278190335
-20.504568 -13.849731 26.838001 4278190335
-20.44162 -13.849731 26.838001 4278190335
-20.605707 -14.00403 27.137001 4278190335
-20.772177 -14.160909 27.441002 4278190335
-20.707813 -14.160909 27.441002 4278190335
-21.36414 -14.655284 28.399002 4278190335
-21.548006 -14.827644 28.733002 4278190335
-22.541449 -15.559918 30.152002 4278190335
-24.933027 -17.264944 33.456001 4278190335
-33.493923 -23.339876 45.228001 4278190335
-36.058689 -25.206944 48.846001 4278190335
-39.06934 -27.398603 53.093002 4278190335
-39.810364 -28.007542 54.273003 4278190335
-41.528553 -29.310049 56.797001 4278190335
-41.395332 -29.310049 56.797001 4278190335
-41.262115 -29.310049 56.797001 4278190335
-41.128891 -29.310049 56.797001 4278190335
-39.17387 -28.007542 54.273003 4278190335
-39.046574 -28.007542 54.273003 4278190335
-37.263481 -26.815985 51.964001 4278190335
-36.367519 -26.257103 50.881001 4278190335
-34.79842 -25.206944 48.846001 4278190335
-34.003609 -24.712568 47.888 4278190335
-33.891285 -24.712568 47.888 4278190335
-32.504353 -23.780066 46.081001 4278190335
-31.796583 -23.339876 45.228001 4278190335
-31.113838 -22.915169 44.405003 4278190335
-30.455902 -22.505941 43.612003 4278190335
-29.306835 -21.729803 42.108002 4278190335
-28.713501 -21.36186 41.395 4278190335
-28.13941 -21.005785 40.705002 4278190335
-27.583714 -20.661066 40.037003 4278190335
-27.489805 -20.661066 40.037003 4278190335
-26.954548 -20.328215 39.392002 4278190335
-26.86215 -20.328215 39.392002 4278190335
-26.769756 -20.328215 39.392002 4278190335
-26.677361 -20.328215 39.392002 4278190335
-27.020266 -20.661066 40.037003 4278190335
-26.926357 -20.661066 40.037003 4278190335
-27.280136 -21.005785 40.705002 4278190335
-27.184662 -21.005785 40.705002 4278190335
-27.089186 -21.005785 40.705002 4278190335
-27.451286 -21.36186 41.395 4278190335
-27.354195 -21.36186 41.395 4278190335
-26.802761 -21.005785 40.705002 4278190335
-26.269001 -20.661066 40.037003 4278190335
-25.753408 -20.328215 39.392002 4278190335
-24.859108 -19.692957 38.161003 4278190335
-24.018612 -19.095888 37.004002 4278190335
-23.57482 -18.811029 36.452003 4278190335
-22.808199 -18.265564 35.395 4278190335
-22.085062 -17.751064 34.398003 4278190335
-21.401783 -17.264944 33.456001 4278190335
-21.61968 -17.504908 33.921001 4278190335
-19.7945 -13.068624 25.440001 4278190335
-19.942728 -13.206296 25.708002 4278190335
-20.094339 -13.347051 25.982 4278190335
-20.469042 -13.637293 26.547001 4278190335
-20.406775 -13.637293 26.547001 4278190335
-20.344507 -13.637293 26.547001 4278190335
-20.504568 -13.78678 26.838001 4278190335
-20.669357 -13.940378 27.137001 4278190335
-20.83654 -14.096545 27.441002 4278190335
-21.249828 -14.420691 28.072001 4278190335
-21.682796 -14.76025 28.733002 4278190335
-22.135984 -15.115732 29.425001 4278190335
-23.184374 -15.881151 30.915001 4278190335
-30.752459 -21.264765 41.395 4278190335
-35.463802 -24.600243 47.888 4278190335
-37.560947 -26.13776 50.881001 4278190335
-39.937664 -27.880243 54.273003 4278190335
-40.715534 -28.514154 55.507004 4278190335
-40.585339 -28.514154 55.507004 4278190335
-40.455143 -28.514154 55.507004 4278190335
-41.262115 -29.17683 56.797001 4278190335
-40.194756 -28.514154 55.507004 4278190335
-39.17387 -27.880243 54.273003 4278190335
-38.197624 -27.274073 53.093002 4278190335
-36.486862 -26.13776 50.881001 4278190335
-35.625603 -25.604536 49.843002 4278190335
-34.115929 -24.600243 47.888 4278190335
-33.349636 -24.127125 46.967003 4278190335
-32.612434 -23.671982 46.081001 4278190335
-32.504353 -23.671982 46.081001 4278190335
-31.217993 -22.811016 44.405003 4278190335
-30.558197 -22.403648 43.612003 4278190335
-29.921677 -22.010666 42.847004 4278190335
-29.306835 -21.631037 42.108002 4278190335
-28.713501 -21.264765 41.395 4278190335
-28.13941 -20.910311 40.705002 4278190335
-27.583714 -20.567158 40.037003 4278190335
-27.489805 -20.567158 40.037003 4278190335
-27.395897 -20.567158 40.037003 4278190335
-27.301989 -20.567158 40.037003 4278190335
-27.208082 -20.567158 40.037003 4278190335
-27.114174 -20.567158 40.037003 4278190335
-27.020266 -20.567158 40.037003 4278190335
-27.375612 -20.910311 40.705002 4278190335
-27.280136 -20.910311 40.705002 4278190335
-27.184662 -20.910311 40.705002 4278190335
-27.548382 -21.264765 41.395 4278190335
-27.451286 -21.264765 41.395 4278190335
-27.825354 -21.631037 42.108002 4278190335
-27.257101 -21.264765 41.395 4278190335
-26.707289 -20.910311 40.705002 4278190335
-25.753408 -20.235817 39.392002 4278190335
-24.859108 -19.603449 38.161003 4278190335
-24.018612 -19.009092 37.004002 4278190335
-23.57482 -18.725531 36.452003 4278190335
-22.808199 -18.182545 35.395 4278190335
-22.085062 -17.670382 34.398003 4278190335
-21.401783 -17.186472 33.456001 4278190335
-21.323309 -17.186472 33.456001 4278190335
-19.942728 -13.145997 25.708002 4278190335
-20.094339 -13.286108 25.982 4278190335
-20.24852 -13.428778 26.261002 4278190335
-20.186926 -13.428778 26.261002 4278190335
-20.344507 -13.575027 26.547001 4278190335
-20.504568 -13.723831 26.838001 4278190335
-20.44162 -13.723831 26.838001 4278190335
-20.83654 -14.032181 27.441002 4278190335
-21.49736 -14.522062 28.399002 4278190335
-22.205 -15.046716 29.425001 4278190335
-23.256886 -15.808639 30.915001 4278190335
-24.421026 -16.651871 32.564003 4278190335
-25.715734 -17.589701 34.398003 4278190335
-28.439423 -19.513941 38.161003 4278190335
-32.399475 -22.301355 43.612003 4278190335
-35.463802 -24.487921 47.888 4278190335
-38.360432 -26.572216 51.964001 4278190335
-39.06934 -27.149542 53.093002 4278190335
-40.715534 -28.383961 55.507004 4278190335
-40.585339 -28.383961 55.507004 4278190335
-40.455143 -28.383961 55.507004 4278190335
-41.262115 -29.043612 56.797001 4278190335
-39.30117 -27.752945 54.273003 4278190335
-38.322155 -27.149542 53.093002 4278190335
-37.385368 -26.572216 51.964001 4278190335
-35.742512 -25.487629 49.843002 4278190335
-34.228252 -24.487921 47.888 4278190335
-33.459801 -24.016962 46.967003 4278190335
-32.72052 -23.563896 46.081001 4278190335
-32.008751 -23.127708 45.228001 4278190335
-31.322144 -22.706861 44.405003 4278190335
-30.660488 -22.301355 43.612003 4278190335
-30.022175 -21.910168 42.847004 4278190335
-29.405602 -21.532272 42.108002 4278190335
-28.810593 -21.167673 41.395 4278190335
-28.713501 -21.167673 41.395 4278190335
-28.13941 -20.814837 40.705002 4278190335
-28.043934 -20.814837 40.705002 4278190335
-27.489805 -20.473249 40.037003 4278190335
-27.395897 -20.473249 40.037003 4278190335
-27.301989 -20.473249 40.037003 4278190335
-27.208082 -20.473249 40.037003 4278190335
-27.114174 -20.473249 40.037003 4278190335
-27.471087 -20.814837 40.705002 4278190335
-27.375612 -20.814837 40.705002 4278190335
-27.280136 -20.814837 40.705002 4278190335
-27.645473 -21.167673 41.395 4278190335
-27.548382 -21.167673 41.395 4278190335
-27.924118 -21.532272 42.108002 4278190335
-27.825354 -21.532272 42.108002 4278190335
-27.257101 -21.167673 41.395 4278190335
-26.707289 -20.814837 40.705002 4278190335
-25.753408 -20.143423 39.392002 4278190335
-24.859108 -19.513941 38.161003 4278190335
-24.38859 -19.213774 37.574001 4278190335
-23.57482 -18.64003 36.452003 4278190335
-22.808199 -18.099524 35.395 4278190335
-22.085062 -17.589701 34.398003 4278190335
-21.401783 -17.108 33.456001 4278190335
-21.323309 -17.108 33.456001 4278190335
-19.882429 -13.085698 25.708002 4278190335
-19.82213 -13.085698 25.708002 4278190335
-19.972456 -13.225167 25.982 4278190335
-20.12533 -13.367183 26.261002 4278190335
-20.733007 -13.813078 27.137001 4278190335
-20.900906 -13.967817 27.441002 4278190335
-21.563972 -14.455452 28.399002 4278190335
-22.824339 -15.347751 30.152002 4278190335
-23.628231 -15.937696 31.311001 4278190335
-25.168444 -17.029528 33.456001 4278190335
-26.93482 -18.281698 35.916 4278190335
-28.528929 -19.424433 38.161003 4278190335
-30.849552 -21.07058 41.395 4278190335
-34.2337 -23.455812 46.081001 4278190335
-37.68029 -25.899075 50.881001 4278190335
-39.193874 -27.025009 53.093002 4278190335
-40.845722 -28.253767 55.507004 4278190335
-40.715534 -28.253767 55.507004 4278190335
-40.585339 -28.253767 55.507004 4278190335
-40.455143 -28.253767 55.507004 4278190335
-40.324951 -28.253767 55.507004 4278190335
-39.30117 -27.625647 54.273003 4278190335
-38.322155 -27.025009 53.093002 4278190335
-36.606205 -25.899075 50.881001 4278190335
-35.027557 -24.863234 48.846001 4278190335
-34.228252 -24.375599 47.888 4278190335
-32.828606 -23.455812 46.081001 4278190335
-32.114834 -23.021626 45.228001 4278190335
-31.426298 -22.602707 44.405003 4278190335
-30.762783 -22.19906 43.612003 4278190335
-30.122673 -21.809669 42.847004 4278190335
-29.504368 -21.433506 42.108002 4278190335
-28.907688 -21.07058 41.395 4278190335
-28.810593 -21.07058 41.395 4278190335
-28.234884 -20.71936 40.705002 4278190335
-28.13941 -20.71936 40.705002 4278190335
-27.583714 -20.379341 40.037003 4278190335
-27.489805 -20.379341 40.037003 4278190335
-27.395897 -20.379341 40.037003 4278190335
-27.301989 -20.379341 40.037003 4278190335
-27.208082 -20.379341 40.037003 4278190335
-27.114174 -20.379341 40.037003 4278190335
-27.471087 -20.71936 40.705002 4278190335
-27.375612 -20.71936 40.705002 4278190335
-27.280136 -20.71936 40.705002 4278190335
-27.645473 -21.07058 41.395 4278190335
-27.548382 -21.07058 41.395 4278190335
-27.924118 -21.433506 42.108002 4278190335
-27.825354 -21.433506 42.108002 4278190335
-27.257101 -21.07058 41.395 4278190335
-26.707289 -20.71936 40.705002 4278190335
-25.753408 -20.051029 39.392002 4278190335
-25.253222 -19.732388 38.766003 4278190335
-24.38859 -19.125643 37.574001 4278190335
-23.57482 -18.554531 36.452003 4278190335
-22.808199 -18.016504 35.395 4278190335
-22.085062 -17.50902 34.398003 4278190335
-21.401783 -17.029528 33.456001 4278190335
-21.323309 -17.029528 33.456001 4278190335
-19.413475 -12.756866 25.178001 4278190335
-23.181326 -15.468042 30.529001 4278190335
-24.650166 -16.499111 32.564003 4278190335
-26.329056 -17.677618 34.890003 4278190335
-28.266352 -19.037512 37.574001 4278190335
-40.715534 -28.123575 55.507004 4278190335
-40.585339 -28.123575 55.507004 4278190335
-40.455143 -28.123575 55.507004 4278190335
-40.324951 -28.123575 55.507004 4278190335
-39.30117 -27.498346 54.273003 4278190335
-37.507248 -26.328451 51.964001 4278190335
-36.606205 -25.779732 50.881001 4278190335
-35.027557 -24.748663 48.846001 4278190335
-33.569965 -23.796637 46.967003 4278190335
-32.220917 -22.915541 45.228001 4278190335
-31.530451 -22.498556 44.405003 4278190335
-30.865076 -22.096769 43.612003 4278190335
-30.223173 -21.709167 42.847004 4278190335
-29.603132 -21.33474 42.108002 4278190335
-29.00478 -20.973486 41.395 4278190335
-28.907688 -20.973486 41.395 4278190335
-28.330359 -20.623886 40.705002 4278190335
-28.234884 -20.623886 40.705002 4278190335
-28.13941 -20.623886 40.705002 4278190335
-27.583714 -20.285433 40.037003 4278190335
-27.489805 -20.285433 40.037003 4278190335
-27.395897 -20.285433 40.037003 4278190335
-27.301989 -20.285433 40.037003 4278190335
-27.208082 -20.285433 40.037003 4278190335
-27.114174 -20.285433 40.037003 4278190335
-27.471087 -20.623886 40.705002 4278190335
-27.375612 -20.623886 40.705002 4278190335
-27.280136 -20.623886 40.705002 4278190335
-27.645473 -20.973486 41.395 4278190335
-27.548382 -20.973486 41.395 4278190335
-27.924118 -21.33474 42.108002 4278190335
-27.825354 -21.33474 42.108002 4278190335
-27.257101 -20.973486 41.395 4278190335
-26.707289 -20.623886 40.705002 4278190335
-25.753408 -19.958632 39.392002 4278190335
-25.253222 -19.641459 38.766003 4278190335
-24.38859 -19.037512 37.574001 4278190335
-23.57482 -18.469032 36.452003 4278190335
-22.808199 -17.933483 35.395 4278190335
-22.085062 -17.428337 34.398003 4278190335
-21.401783 -16.951057 33.456001 4278190335
-21.61968 -17.186657 33.921001 4278190335
-34.557957 -23.239645 46.081001 4278190335
-36.516968 -24.634094 48.846001 4278190335
-37.918976 -25.660387 50.881001 4278190335
-39.442936 -26.775948 53.093002 4278190335
-41.10611 -27.993382 55.507004 4278190335
-41.928207 -28.643955 56.797001 4278190335
-41.794991 -28.643955 56.797001 4278190335
-42.654224 -29.326303 58.150002 4278190335
-41.528553 -28.643955 56.797001 4278190335
-40.455143 -27.993382 55.507004 4278190335
-39.428467 -27.371048 54.273003 4278190335
-39.30117 -27.371048 54.273003 4278190335
-37.507248 -26.206568 51.964001 4278190335
-35.859421 -25.136904 49.843002 4278190335
-35.027557 -24.634094 48.846001 4278190335
-32.936687 -23.239645 46.081001 4278190335
-32.220917 -22.809458 45.228001 4278190335
-31.530451 -22.394402 44.405003 4278190335
-30.865076 -21.994474 43.612003 4278190335
-30.223173 -21.608669 42.847004 4278190335
-29.603132 -21.235975 42.108002 4278190335
-29.00478 -20.876392 41.395 4278190335
-28.425835 -20.52841 40.705002 4278190335
-28.330359 -20.52841 40.705002 4278190335
-28.234884 -20.52841 40.705002 4278190335
-27.677622 -20.191525 40.037003 4278190335
-27.583714 -20.191525 40.037003 4278190335
-27.489805 -20.191525 40.037003 4278190335
-27.395897 -20.191525 40.037003 4278190335
-27.301989 -20.191525 40.037003 4278190335
-27.208082 -20.191525 40.037003 4278190335
-27.114174 -20.191525 40.037003 4278190335
-27.471087 -20.52841 40.705002 4278190335
-27.375612 -20.52841 40.705002 4278190335
-27.280136 -20.52841 40.705002 4278190335
-27.645473 -20.876392 41.395 4278190335
-27.548382 -20.876392 41.395 4278190335
-27.924118 -21.235975 42.108002 4278190335
-27.825354 -21.235975 42.108002 4278190335
-27.726587 -21.235975 42.108002 4278190335
-26.707289 -20.52841 40.705002 4278190335
-26.175093 -20.191525 40.037003 4278190335
-25.253222 -19.550533 38.766003 4278190335
-24.38859 -18.949381 37.574001 4278190335
-23.57482 -18.383533 36.452003 4278190335
-22.808199 -17.850464 35.395 4278190335
-22.085062 -17.347656 34.398003 4278190335
-21.699244 -17.107094 33.921001 4278190335
-21.61968 -17.107094 33.921001 4278190335
-38.847965 -26.084684 51.964001 4278190335
-39.567471 -26.651417 53.093002 4278190335
-41.236305 -27.863188 55.507004 4278190335
-42.061428 -28.510736 56.797001 4278190335
-41.928207 -28.510736 56.797001 4278190335
-41.794991 -28.510736 56.797001 4278190335
-41.66177 -28.510736 56.797001 4278190335
-40.585339 -27.863188 55.507004 4278190335
-39.555767 -27.243748 54.273003 4278190335
-39.428467 -27.243748 54.273003 4278190335
-38.446686 -26.651417 53.093002 4278190335
-37.507248 -26.084684 51.964001 4278190335
-35.859421 -25.019995 49.843002 4278190335
-35.027557 -24.519524 48.846001 4278190335
-33.569965 -23.576311 46.967003 4278190335
-32.220917 -22.703373 45.228001 4278190335
-31.530451 -22.290249 44.405003 4278190335
-30.865076 -21.892181 43.612003 4278190335
-30.223173 -21.508171 42.847004 4278190335
-29.101873 -20.779301 41.395 4278190335
-28.521309 -20.432938 40.705002 4278190335
-28.425835 -20.432938 40.705002 4278190335
-28.330359 -20.432938 40.705002 4278190335
-27.77153 -20.097616 40.037003 4278190335
-27.677622 -20.097616 40.037003 4278190335
-27.583714 -20.097616 40.037003 4278190335
-27.489805 -20.097616 40.037003 4278190335
-27.395897 -20.097616 40.037003 4278190335
-27.301989 -20.097616 40.037003 4278190335
-27.208082 -20.097616 40.037003 4278190335
-27.114174 -20.097616 40.037003 4278190335
-27.471087 -20.432938 40.705002 4278190335
-27.375612 -20.432938 40.705002 4278190335
-27.280136 -20.432938 40.705002 4278190335
-27.645473 -20.779301 41.395 4278190335
-27.548382 -20.779301 41.395 4278190335
-27.924118 -21.137209 42.108002 4278190335
-27.825354 -21.137209 42.108002 4278190335
-27.726587 -21.137209 42.108002 4278190335
-26.707289 -20.432938 40.705002 4278190335
-26.175093 -20.097616 40.037003 4278190335
-25.253222 -19.459606 38.766003 4278190335
-24.7696 -19.15591 38.161003 4278190335
-23.931818 -18.575123 37.004002 4278190335
-23.143927 -18.028973 35.916 4278190335
-22.400948 -17.513947 34.890003 4278190335
-21.699244 -17.027531 33.921001 4278190335
-21.61968 -17.027531 33.921001 4278190335
-37.613045 -24.903088 49.843002 4278190335
-39.091728 -25.962803 51.964001 4278190335
-41.626884 -27.732994 55.507004 4278190335
-43.47258 -29.053516 58.150002 4278190335
-43.336189 -29.053516 58.150002 4278190335
-45.359413 -30.505943 61.057003 4278190335
-45.216206 -30.505943 61.057003 4278190335
-45.072994 -30.505943 61.057003 4278190335
-43.834076 -29.761995 59.568005 4278190335
-41.66177 -28.377516 56.797001 4278190335
-41.528553 -28.377516 56.797001 4278190335
-39.555767 -27.116449 54.273003 4278190335
-39.428467 -27.116449 54.273003 4278190335
-38.446686 -26.526886 53.093002 4278190335
-37.507248 -25.962803 51.964001 4278190335
-36.606205 -25.421701 50.881001 4278190335
-35.027557 -24.404953 48.846001 4278190335
-33.569965 -23.46615 46.967003 4278190335
-32.828606 -23.023476 46.081001 4278190335
-31.530451 -22.186096 44.405003 4278190335
-30.865076 -21.78989 43.612003 4278190335
-30.223173 -21.407671 42.847004 4278190335
-29.101873 -20.682205 41.395 4278190335
-28.521309 -20.337463 40.705002 4278190335
-28.425835 -20.337463 40.705002 4278190335
-27.865438 -20.003708 40.037003 4278190335
-27.77153 -20.003708 40.037003 4278190335
-27.677622 -20.003708 40.037003 4278190335
-27.583714 -20.003708 40.037003 4278190335
-27.489805 -20.003708 40.037003 4278190335
-27.395897 -20.003708 40.037003 4278190335
-27.301989 -20.003708 40.037003 4278190335
-27.208082 -20.003708 40.037003 4278190335
-27.114174 -20.003708 40.037003 4278190335
-27.020266 -20.003708 40.037003 4278190335
-27.375612 -20.337463 40.705002 4278190335
-27.280136 -20.337463 40.705002 4278190335
-27.645473 -20.682205 41.395 4278190335
-27.548382 -20.682205 41.395 4278190335
-27.924118 -21.038445 42.108002 4278190335
-27.825354 -21.038445 42.108002 4278190335
-27.726587 -21.038445 42.108002 4278190335
-27.160007 -20.682205 41.395 4278190335
-26.611813 -20.337463 40.705002 4278190335
-25.661015 -19.681448 39.392002 4278190335
-24.7696 -19.066402 38.161003 4278190335
-24.300457 -18.773119 37.574001 4278190335
-23.489321 -18.212534 36.452003 4278190335
-22.72518 -17.684423 35.395 4278190335
-22.004379 -17.186293 34.398003 4278190335
-21.923698 -17.186293 34.398003 4278190335
-33.613518 -22.081942 44.405003 4278190335
-36.137737 -23.813984 47.888 4278190335
-38.277004 -25.302359 50.881001 4278190335
-40.701458 -26.989151 54.273003 4278190335
-42.461086 -28.244297 56.797001 4278190335
-43.336189 -28.917124 58.150002 4278190335
-44.253235 -29.622274 59.568005 4278190335
-45.216206 -30.362732 61.057003 4278190335
-43.973797 -29.622274 59.568005 4278190335
-42.790619 -28.917124 58.150002 4278190335
-41.66177 -28.244297 56.797001 4278190335
-40.585339 -27.6028 55.507004 4278190335
-39.555767 -26.989151 54.273003 4278190335
-39.428467 -26.989151 54.273003 4278190335
-39.30117 -26.989151 54.273003 4278190335
-38.322155 -26.402353 53.093002 4278190335
-36.606205 -25.302359 50.881001 4278190335
-35.742512 -24.786177 49.843002 4278190335
-34.228252 -23.813984 47.888 4278190335
-32.828606 -22.915392 46.081001 4278190335
-32.114834 -22.491205 45.228001 4278190335
-30.865076 -21.687595 43.612003 4278190335
-30.223173 -21.307173 42.847004 4278190335
-29.101873 -20.585114 41.395 4278190335
-28.521309 -20.241987 40.705002 4278190335
-27.959347 -19.909801 40.037003 4278190335
-27.865438 -19.909801 40.037003 4278190335
-27.77153 -19.909801 40.037003 4278190335
-27.677622 -19.909801 40.037003 4278190335
-27.583714 -19.909801 40.037003 4278190335
-27.489805 -19.909801 40.037003 4278190335
-27.395897 -19.909801 40.037003 4278190335
-27.301989 -19.909801 40.037003 4278190335
-27.208082 -19.909801 40.037003 4278190335
-27.114174 -19.909801 40.037003 4278190335
-27.020266 -19.909801 40.037003 4278190335
-27.375612 -20.241987 40.705002 4278190335
-27.280136 -20.241987 40.705002 4278190335
-27.645473 -20.585114 41.395 4278190335
-27.548382 -20.585114 41.395 4278190335
-27.924118 -20.939678 42.108002 4278190335
-27.825354 -20.939678 42.108002 4278190335
-27.726587 -20.939678 42.108002 4278190335
-27.160007 -20.585114 41.395 4278190335
