# .PCD v0.7 - Point Cloud Data file format
VERSION 0.7
FIELDS x y z rgb
SIZE 4 4 4 4
TYPE F F F U
COUNT 1 1 1 1
WIDTH 1066
HEIGHT 1
VIEWPOINT 0 0 0 1 0 0 0
POINTS 1066
DATA ascii
-0.050081361 0.01209604 0.1911 4278190335
-0.049866881 0.012153008 0.192 4278190335
-0.049670458 0.012798635 0.2022 4278190335
-0.049220521 0.012804965 0.2023 4278190335
-0.048794214 0.012817625 0.2025 4278190335
-0.048366964 0.012830283 0.20269999 4278190335
-0.047891524 0.012830283 0.20269999 4278190335
-0.047439478 0.012836614 0.20279999 4278190335
-0.046963803 0.012836614 0.20279999 4278190335
-0.046465207 0.012830283 0.20269999 4278190335
-0.04598977 0.012830283 0.20269999 4278190335
-0.045469426 0.012817625 0.2025 4278190335
-0.044950016 0.012804965 0.2023 4278190335
-0.044453528 0.012798635 0.2022 4278190335
-0.043935761 0.012785976 0.20199999 4278190335
-0.043418929 0.012773316 0.20179999 4278190335
-0.042881761 0.012754329 0.2015 4278190335
-0.042367041 0.012741668 0.2013 4278190335
-0.041874073 0.012735339 0.20119999 4278190335
-0.041360997 0.012722679 0.20099999 4278190335
-0.040828519 0.012703691 0.2007 4278190335
-0.04031755 0.012691031 0.2005 4278190335
-0.039827399 0.012684701 0.20039999 4278190335
-0.039278798 0.012659382 0.19999999 4278190335
-0.038790289 0.012653053 0.1999 4278190335
-0.038225565 0.012621405 0.19939999 4278190335
-0.037159257 0.012577097 0.1987 4278190335
-0.036600869 0.012545449 0.1982 4278190335
-0.03602659 0.012507469 0.19759999 4278190335
-0.035509121 0.012488482 0.1973 4278190335
-0.034993056 0.012469492 0.197 4278190335
-0.034495931 0.012456832 0.19679999 4278190335
-0.033999741 0.012444173 0.19659999 4278190335
-0.03357273 0.012456832 0.19679999 4278190335
-0.033195253 0.012488482 0.1973 4278190335
-0.032815434 0.01252013 0.1978 4278190335
-0.032367844 0.012526459 0.1979 4278190335
-0.032032631 0.012577097 0.1987 4278190335
-0.031757213 0.012653053 0.1999 4278190335
-0.031585727 0.012773316 0.20179999 4278190335
-0.031185655 0.013001186 0.20539999 4278190335
-0.030913161 0.013089802 0.2068 4278190335
-0.030589955 0.013159428 0.20789999 4278190335
-0.030218154 0.013210066 0.2087 4278190335
-0.029814109 0.013248044 0.2093 4278190335
-0.029365219 0.013267034 0.2096 4278190335
-0.028997576 0.013324001 0.2105 4278190335
-0.028530922 0.013336659 0.21069999 4278190335
-0.028116561 0.013374638 0.2113 4278190335
-0.027660165 0.013393627 0.21159999 4278190335
-0.027215201 0.013418945 0.212 4278190335
-0.026768358 0.013444263 0.21239999 4278190335
-0.026294904 0.013456924 0.21259999 4278190335
-0.025808379 0.013463253 0.21269999 4278190335
-0.025309484 0.013463253 0.21269999 4278190335
-0.02481059 0.013463253 0.21269999 4278190335
-0.024334555 0.013475913 0.2129 4278190335
-0.023835192 0.013475913 0.2129 4278190335
-0.023335829 0.013475913 0.2129 4278190335
-0.022836465 0.013475913 0.2129 4278190335
-0.022337101 0.013475913 0.2129 4278190335
-0.021858253 0.013488572 0.2131 4278190335
-0.021378463 0.013501232 0.21329999 4278190335
-0.020878162 0.013501232 0.21329999 4278190335
-0.020396968 0.013513891 0.21349999 4278190335
-0.019896198 0.013513891 0.21349999 4278190335
-0.019413596 0.01352655 0.2137 4278190335
-0.018912356 0.01352655 0.2137 4278190335
-0.018428346 0.01353921 0.2139 4278190335
-0.017909875 0.01352655 0.2137 4278190335
-0.017392343 0.013513891 0.21349999 4278190335
-0.016891573 0.013513891 0.21349999 4278190335
-0.016375447 0.013501232 0.21329999 4278190335
-0.015875146 0.013501232 0.21329999 4278190335
-0.015360428 0.013488572 0.2131 4278190335
-0.014846647 0.013475913 0.2129 4278190335
-0.014333806 0.013463253 0.21269999 4278190335
-0.013828408 0.013456924 0.21259999 4278190335
-0.013317208 0.013444263 0.21239999 4278190335
-0.012819017 0.013444263 0.21239999 4278190335
-0.012309225 0.013431605 0.2122 4278190335
-0.011811503 0.013431605 0.2122 4278190335
-0.011313782 0.013431605 0.2122 4278190335
-0.010805866 0.013418945 0.212 4278190335
-0.010318338 0.013431605 0.2122 4278190335
-0.0098206159 0.013431605 0.2122 4278190335
-0.0093228947 0.013431605 0.2122 4278190335
-0.0088334903 0.013444263 0.21239999 4278190335
-0.0083352998 0.013444263 0.21239999 4278190335
-0.0078444891 0.013456924 0.21259999 4278190335
-0.0073458287 0.013456924 0.21259999 4278190335
-0.0068503893 0.013463253 0.21269999 4278190335
-0.0063574673 0.013475913 0.2129 4278190335
-0.0058636074 0.013488572 0.2131 4278190335
-0.0053688083 0.013501232 0.21329999 4278190335
-0.0048730713 0.013513891 0.21349999 4278190335
-0.004380492 0.01353921 0.2139 4278190335
-0.0038842233 0.013558199 0.21419999 4278190335
-0.0033881259 0.013583518 0.2146 4278190335
-0.0028901519 0.013608836 0.21499999 4278190335
-0.0023880822 0.013621495 0.21519999 4278190335
-0.0018868245 0.013646815 0.2156 4278190335
-0.0013830496 0.013665803 0.21589999 4278190335
-0.0008782738 0.013691123 0.2163 4278190335
-0.0003716214 0.013716441 0.21669999 4278190335
0.00013690742 0.01374176 0.21709999 4278190335
0.00064731267 0.013767079 0.2175 4278190335
-0.070920929 0.011763126 0.17919999 4278190335
-0.070500612 0.011763126 0.17919999 4278190335
-0.070041187 0.011756562 0.17909999 4278190335
-0.069621101 0.011756562 0.17909999 4278190335
-0.069085106 0.01173687 0.1788 4278190335
-0.068665721 0.01173687 0.1788 4278190335
-0.068284504 0.011743433 0.17889999 4278190335
-0.067940764 0.011756562 0.17909999 4278190335
-0.067558378 0.011763126 0.17919999 4278190335
-0.067287922 0.011789383 0.1796 4278190335
-0.067015588 0.01181564 0.17999999 4278190335
-0.066778377 0.011848462 0.1805 4278190335
-0.066612333 0.011894411 0.1812 4278190335
-0.066369958 0.011927232 0.18169999 4278190335
-0.066161536 0.011966618 0.1823 4278190335
-0.065914236 0.011999439 0.18279999 4278190335
-0.065521292 0.012006003 0.1829 4278190335
-0.065163478 0.012019132 0.1831 4278190335
-0.064769365 0.012025696 0.1832 4278190335
-0.064409897 0.012038824 0.18339999 4278190335
-0.064014614 0.012045388 0.18349999 4278190335
-0.063618861 0.012051953 0.18359999 4278190335
-0.063257053 0.012065082 0.1838 4278190335
-0.062825948 0.012065082 0.1838 4278190335
-0.062428784 0.012071646 0.1839 4278190335
-0.062031154 0.01207821 0.184 4278190335
-0.061666533 0.012091338 0.18419999 4278190335
-0.061234485 0.012091338 0.18419999 4278190335
-0.060835451 0.012097903 0.18429999 4278190335
-0.060468718 0.012111031 0.18449999 4278190335
-0.060068507 0.012117595 0.1846 4278190335
-0.059667829 0.012124159 0.1847 4278190335
-0.059330821 0.012143853 0.185 4278190335
-0.058992404 0.012163545 0.18529999 4278190335
-0.05858938 0.012170109 0.18539999 4278190335
-0.05824862 0.012189802 0.1857 4278190335
-0.05787532 0.012202931 0.1859 4278190335
-0.057501078 0.012216059 0.18609999 4278190335
-0.057156567 0.012235751 0.1864 4278190335
-0.056780219 0.01224888 0.1866 4278190335
-0.056433123 0.012268572 0.18689999 4278190335
-0.056024704 0.012275137 0.18699999 4278190335
-0.055675264 0.01229483 0.1873 4278190335
-0.055265438 0.012301395 0.1874 4278190335
-0.0548844 0.012314523 0.1876 4278190335
-0.054531436 0.012334215 0.18789999 4278190335
-0.054119501 0.012340779 0.18799999 4278190335
-0.053735647 0.012353908 0.1882 4278190335
-0.053350855 0.012367037 0.1884 4278190335
-0.052993201 0.012386729 0.18869999 4278190335
-0.0526063 0.012399858 0.18889999 4278190335
-0.052273687 0.012426116 0.1893 4278190335
-0.05191182 0.012445807 0.18959999 4278190335
-0.051548544 0.0124655 0.1899 4278190335
-0.051237676 0.012498321 0.19039999 4278190335
-0.050791088 0.012498321 0.19039999 4278190335
-0.050582472 0.012557399 0.19129999 4278190335
-0.050291017 0.012596785 0.1919 4278190335
-0.050178546 0.01268212 0.19319999 4278190335
-0.050020728 0.013240081 0.2017 4278190335
-0.049621325 0.013259774 0.20199999 4278190335
-0.049220521 0.013279467 0.2023 4278190335
-0.048794214 0.013292596 0.2025 4278190335
-0.048366964 0.013305723 0.20269999 4278190335
-0.047915149 0.013312288 0.20279999 4278190335
-0.047439478 0.013312288 0.20279999 4278190335
-0.04701012 0.013325416 0.20299999 4278190335
-0.046488129 0.013312288 0.20279999 4278190335
-0.04598977 0.013305723 0.20269999 4278190335
-0.045469426 0.013292596 0.2025 4278190335
-0.044950016 0.013279467 0.2023 4278190335
-0.044453528 0.013272902 0.2022 4278190335
-0.043935761 0.013259774 0.20199999 4278190335
-0.043418929 0.013246645 0.20179999 4278190335
-0.042881761 0.013226952 0.2015 4278190335
-0.042367041 0.013213824 0.2013 4278190335
-0.041874073 0.01320726 0.20119999 4278190335
-0.041360997 0.013194131 0.20099999 4278190335
-0.040848859 0.013181004 0.2008 4278190335
-0.04031755 0.01316131 0.2005 4278190335
-0.039847273 0.01316131 0.2005 4278190335
-0.039318077 0.013141617 0.20019999 4278190335
-0.038809691 0.013128488 0.19999999 4278190335
-0.038244735 0.013095668 0.19949999 4278190335
-0.037757862 0.013089104 0.19939999 4278190335
-0.037196659 0.013056283 0.1989 4278190335
-0.036674734 0.013036589 0.19859999 4278190335
-0.036117751 0.013003768 0.1981 4278190335
-0.035617106 0.01299064 0.1979 4278190335
-0.035135161 0.012984076 0.1978 4278190335
-0.034636158 0.012970947 0.19759999 4278190335
-0.034138091 0.012957818 0.19739999 4278190335
-0.033743322 0.012984076 0.1978 4278190335
-0.033329852 0.013003768 0.1981 4278190335
-0.032964744 0.013043154 0.1987 4278190335
-0.032547757 0.013062847 0.199 4278190335
-0.032226086 0.013121925 0.1999 4278190335
-0.031931963 0.013194131 0.20099999 4278190335
-0.031726595 0.013305723 0.20269999 4278190335
-0.031246386 0.013509215 0.2058 4278190335
-0.030958004 0.01359455 0.20709999 4278190335
-0.030589955 0.013647064 0.20789999 4278190335
-0.030203674 0.013693014 0.2086 4278190335
-0.029785618 0.013725835 0.20909999 4278190335
-0.029365219 0.013758657 0.2096 4278190335
-0.028956249 0.013798042 0.2102 4278190335
-0.028503843 0.013817735 0.2105 4278190335
-0.028063335 0.013843992 0.21089999 4278190335
-0.027647093 0.013883376 0.21149999 4278190335
-0.027189527 0.013903069 0.21179999 4278190335
-0.026717948 0.013916198 0.212 4278190335
-0.026270168 0.013942455 0.21239999 4278190335
-0.025771977 0.013942455 0.21239999 4278190335
-0.025297584 0.013955584 0.21259999 4278190335
-0.02481059 0.013962148 0.21269999 4278190335
-0.024311695 0.013962148 0.21269999 4278190335
-0.023812801 0.013962148 0.21269999 4278190335
-0.023335829 0.013975277 0.2129 4278190335
-0.022836465 0.013975277 0.2129 4278190335
-0.022337101 0.013975277 0.2129 4278190335
-0.021858253 0.013988405 0.2131 4278190335
-0.021358419 0.013988405 0.2131 4278190335
-0.020878162 0.014001533 0.21329999 4278190335
-0.020377861 0.014001533 0.21329999 4278190335
-0.019877559 0.014001533 0.21329999 4278190335
-0.019377258 0.014001533 0.21329999 4278190335
-0.018894656 0.014014662 0.21349999 4278190335
-0.018393885 0.014014662 0.21349999 4278190335
-0.017876351 0.014001533 0.21329999 4278190335
-0.017359758 0.013988405 0.2131 4278190335
-0.016844103 0.013975277 0.2129 4278190335
-0.016344739 0.013975277 0.2129 4278190335
-0.015830489 0.013962148 0.21269999 4278190335
-0.015331595 0.013962148 0.21269999 4278190335
-0.014825727 0.013955584 0.21259999 4278190335
-0.014327066 0.013955584 0.21259999 4278190335
-0.013815399 0.013942455 0.21239999 4278190335
-0.013317208 0.013942455 0.21239999 4278190335
-0.012806947 0.013929327 0.2122 4278190335
-0.012309225 0.013929327 0.2122 4278190335
-0.011811503 0.013929327 0.2122 4278190335
-0.011303118 0.013916198 0.212 4278190335
-0.01081606 0.013929327 0.2122 4278190335
-0.010308613 0.013916198 0.212 4278190335
-0.0098113604 0.013916198 0.212 4278190335
-0.0093228947 0.013929327 0.2122 4278190335
-0.0088251727 0.013929327 0.2122 4278190335
-0.0083352998 0.013942455 0.21239999 4278190335
-0.0078371093 0.013942455 0.21239999 4278190335
-0.0073389183 0.013942455 0.21239999 4278190335
-0.0068471688 0.013955584 0.21259999 4278190335
-0.0063485089 0.013955584 0.21259999 4278190335
-0.0058526006 0.013962148 0.21269999 4278190335
-0.0053587402 0.013975277 0.2129 4278190335
-0.004863942 0.013988405 0.2131 4278190335
-0.0043723006 0.014014662 0.21349999 4278190335
-0.0038787832 0.014040919 0.2139 4278190335
-0.0033849683 0.01407374 0.21439999 4278190335
-0.0028847749 0.014086869 0.2146 4278190335
-0.0023858626 0.014113125 0.21499999 4278190335
-0.0018850742 0.014139382 0.2154 4278190335
-0.0013830496 0.014172204 0.21589999 4278190335
-0.071341254 0.012183446 0.17919999 4278190335
-0.070920929 0.012183446 0.17919999 4278190335
-0.070500612 0.012183446 0.17919999 4278190335
-0.070080295 0.012183446 0.17919999 4278190335
-0.069659971 0.012183446 0.17919999 4278190335
-0.069239654 0.012183446 0.17919999 4278190335
-0.068819337 0.012183446 0.17919999 4278190335
-0.068399012 0.012183446 0.17919999 4278190335
-0.068054564 0.012197043 0.1794 4278190335
-0.067633778 0.012197043 0.1794 4278190335
-0.067362845 0.012224237 0.17979999 4278190335
-0.067090049 0.012251433 0.1802 4278190335
-0.066778377 0.01227183 0.1805 4278190335
-0.06650205 0.012299024 0.18089999 4278190335
-0.066260383 0.01233302 0.1814 4278190335
-0.066052653 0.012373812 0.182 4278190335
-0.06577 0.012401006 0.18239999 4278190335
-0.065449648 0.012421403 0.18269999 4278190335
-0.065092295 0.012435001 0.1829 4278190335
-0.064663298 0.012435001 0.1829 4278190335
-0.064304546 0.012448599 0.1831 4278190335
-0.06397973 0.012468995 0.18339999 4278190335
-0.063549556 0.012468995 0.18339999 4278190335
-0.063153803 0.012475793 0.18349999 4278190335
-0.062757581 0.012482593 0.18359999 4278190335
-0.062394835 0.01249619 0.1838 4278190335
-0.06196373 0.01249619 0.1838 4278190335
-0.061566103 0.012502989 0.1839 4278190335
-0.061168004 0.012509788 0.184 4278190335
-0.060802441 0.012523385 0.18419999 4278190335
-0.060370393 0.012523385 0.18419999 4278190335
-0.060035966 0.012543782 0.18449999 4278190335
-0.059635524 0.01255058 0.1846 4278190335
-0.05929875 0.012570977 0.1849 4278190335
-0.058896899 0.012577776 0.185 4278190335
-0.058557779 0.012598172 0.18529999 4278190335
-0.058217254 0.012618569 0.1856 4278190335
-0.05787532 0.012638966 0.1859 4278190335
-0.05747018 0.012645763 0.18599999 4278190335
-0.057125904 0.01266616 0.18629999 4278190335
-0.056780219 0.012686557 0.1866 4278190335
-0.056433123 0.012706952 0.18689999 4278190335
-0.056024704 0.012713752 0.18699999 4278190335
-0.055675264 0.012734148 0.1873 4278190335
-0.055265438 0.012740947 0.1874 4278190335
-0.054913651 0.012761342 0.18769999 4278190335
-0.05456046 0.012781739 0.18799999 4278190335
-0.054177076 0.012795337 0.1882 4278190335
-0.053764198 0.012802136 0.1883 4278190335
-0.053407487 0.012822532 0.18859999 4278190335
-0.053049371 0.012842929 0.18889999 4278190335
-0.052689847 0.012863326 0.1892 4278190335
-0.052356526 0.012890521 0.18959999 4278190335
-0.051993959 0.012910916 0.1899 4278190335
-0.051684268 0.012944911 0.19039999 4278190335
-0.051318411 0.012965308 0.19069999 4278190335
-0.050897796 0.012972106 0.1908 4278190335
-0.050688241 0.013033295 0.1917 4278190335
-0.050395843 0.013074088 0.19229999 4278190335
-0.05030841 0.013169272 0.1937 4278190335
-0.050241355 0.013393631 0.197 4278190335
-0.050118309 0.013611193 0.20019999 4278190335
-0.050020728 0.013713175 0.2017 4278190335
-0.049572196 0.013719973 0.20179999 4278190335
-0.049220521 0.013753968 0.2023 4278190335
-0.048794214 0.013767566 0.2025 4278190335
-0.048366964 0.013781163 0.20269999 4278190335
-0.047915149 0.013787962 0.20279999 4278190335
-0.047486261 0.013801559 0.20299999 4278190335
-0.046963803 0.013787962 0.20279999 4278190335
-0.046533976 0.013801559 0.20299999 4278190335
-0.046012457 0.013787962 0.20279999 4278190335
-0.04551433 0.013781163 0.20269999 4278190335
-0.044994455 0.013767566 0.2025 4278190335
-0.044475514 0.013753968 0.2023 4278190335
-0.043979261 0.013747169 0.2022 4278190335
-0.043418929 0.013719973 0.20179999 4278190335
-0.042924322 0.013713175 0.2017 4278190335
-0.042409137 0.013699577 0.2015 4278190335
-0.041874073 0.013679181 0.20119999 4278190335
-0.041360997 0.013665583 0.20099999 4278190335
-0.040848859 0.013651987 0.2008 4278190335
-0.040357769 0.013645187 0.2007 4278190335
-0.039827399 0.01362479 0.20039999 4278190335
-0.039318077 0.013611193 0.20019999 4278190335
-0.038809691 0.013597595 0.19999999 4278190335
-0.038321417 0.013590797 0.1999 4278190335
-0.037776802 0.013563601 0.19949999 4278190335
-0.037290163 0.013556803 0.19939999 4278190335
-0.036748599 0.013529608 0.199 4278190335
-0.036227144 0.013509211 0.1987 4278190335
-0.035743088 0.013502412 0.19859999 4278190335
-0.035277266 0.013502412 0.19859999 4278190335
-0.034776386 0.013488814 0.19839999 4278190335
-0.03431103 0.013488814 0.19839999 4278190335
-0.033879798 0.013502412 0.19859999 4278190335
-0.03346445 0.013522808 0.1989 4278190335
-0.033130649 0.0135772 0.1997 4278190335
-0.032694958 0.013590797 0.1999 4278190335
-0.032371175 0.013651987 0.2008 4278190335
-0.032059055 0.013719973 0.20179999 4278190335
-0.03183616 0.013828754 0.2034 4278190335
-0.031291936 0.014012323 0.2061 4278190335
-0.030958004 0.014080309 0.20709999 4278190335
-0.030589955 0.014134699 0.20789999 4278190335
-0.030203674 0.014182292 0.2086 4278190335
-0.029728642 0.014189092 0.2087 4278190335
-0.02935121 0.014243482 0.2095 4278190335
-0.028928697 0.014277475 0.20999999 4278190335
-0.028503843 0.014311469 0.2105 4278190335
-0.028063335 0.014338664 0.21089999 4278190335
-0.027620951 0.01436586 0.2113 4278190335
-0.027163852 0.014386255 0.21159999 4278190335
-0.026717948 0.014413451 0.212 4278190335
-0.026245432 0.014427049 0.2122 4278190335
-0.025771977 0.014440645 0.21239999 4278190335
-0.025297584 0.014454244 0.21259999 4278190335
-0.02481059 0.014461042 0.21269999 4278190335
-0.024311695 0.014461042 0.21269999 4278190335
-0.023812801 0.014461042 0.21269999 4278190335
-0.023335829 0.014474641 0.2129 4278190335
-0.022836465 0.014474641 0.2129 4278190335
-0.022337101 0.014474641 0.2129 4278190335
-0.021858253 0.014488238 0.2131 4278190335
-0.021358419 0.014488238 0.2131 4278190335
-0.020858586 0.014488238 0.2131 4278190335
-0.020358756 0.014488238 0.2131 4278190335
-0.019858923 0.014488238 0.2131 4278190335
-0.019359089 0.014488238 0.2131 4278190335
-0.018859256 0.014488238 0.2131 4278190335
-0.018359425 0.014488238 0.2131 4278190335
-0.017842829 0.014474641 0.2129 4278190335
-0.017327173 0.014461042 0.21269999 4278190335
-0.016820367 0.014454244 0.21259999 4278190335
-0.016321708 0.014454244 0.21259999 4278190335
-0.015808161 0.014440645 0.21239999 4278190335
-0.01530997 0.014440645 0.21239999 4278190335
-0.014811779 0.014440645 0.21239999 4278190335
-0.014300111 0.014427049 0.2122 4278190335
-0.013802391 0.014427049 0.2122 4278190335
-0.013304668 0.014427049 0.2122 4278190335
-0.012806947 0.014427049 0.2122 4278190335
-0.012309225 0.014427049 0.2122 4278190335
-0.011811503 0.014427049 0.2122 4278190335
-0.011313782 0.014427049 0.2122 4278190335
-0.01081606 0.014427049 0.2122 4278190335
-0.010318338 0.014427049 0.2122 4278190335
-0.0098206159 0.014427049 0.2122 4278190335
-0.0093228947 0.014427049 0.2122 4278190335
-0.0088251727 0.014427049 0.2122 4278190335
-0.0083274515 0.014427049 0.2122 4278190335
-0.0078297304 0.014427049 0.2122 4278190335
-0.0073320079 0.014427049 0.2122 4278190335
-0.0068342863 0.014427049 0.2122 4278190335
-0.0063425363 0.014440645 0.21239999 4278190335
-0.005849849 0.014454244 0.21259999 4278190335
-0.005353706 0.014461042 0.21269999 4278190335
-0.0048593767 0.014474641 0.2129 4278190335
-0.0043682046 0.014501835 0.21329999 4278190335
-0.0038787832 0.014542629 0.2139 4278190335
-0.0033818106 0.014563024 0.21419999 4278190335
-0.0028820864 0.014576622 0.21439999 4278190335
-0.0023858626 0.014617414 0.21499999 4278190335
-0.0018850742 0.014644611 0.2154 4278190335
-0.0013817685 0.014665007 0.2157 4278190335
-0.071341254 0.012603763 0.17919999 4278190335
-0.070881352 0.01259673 0.17909999 4278190335
-0.070500612 0.012603763 0.17919999 4278190335
-0.070080295 0.012603763 0.17919999 4278190335
-0.069737718 0.01261783 0.1794 4278190335
-0.069316931 0.01261783 0.1794 4278190335
-0.068896145 0.01261783 0.1794 4278190335
-0.068551697 0.012631897 0.1796 4278190335
-0.068168372 0.01263893 0.1797 4278190335
-0.067784578 0.012645963 0.17979999 4278190335
-0.067475244 0.012667064 0.18009999 4278190335
-0.067201741 0.012695197 0.1805 4278190335
-0.066889361 0.012716297 0.18079999 4278190335
-0.06650205 0.01272333 0.18089999 4278190335
-0.066223852 0.012751464 0.1813 4278190335
-0.065943778 0.012779597 0.18169999 4278190335
-0.065625772 0.012800697 0.182 4278190335
-0.065306358 0.012821797 0.1823 4278190335
-0.064949937 0.012835864 0.18249999 4278190335
-0.064592592 0.012849931 0.18269999 4278190335
-0.064199179 0.012856964 0.18279999 4278190335
-0.063805304 0.012863997 0.1829 4278190335
-0.063445605 0.012878064 0.1831 4278190335
-0.063050561 0.012885098 0.1832 4278190335
-0.062620856 0.012885098 0.1832 4278190335
-0.062259044 0.012899164 0.18339999 4278190335
-0.061862588 0.012906197 0.18349999 4278190335
-0.061465666 0.012913231 0.18359999 4278190335
-0.06103503 0.012913231 0.18359999 4278190335
-0.060703415 0.012934331 0.1839 4278190335
-0.060304847 0.012941364 0.184 4278190335
-0.059938345 0.012955431 0.18419999 4278190335
-0.059538607 0.012962464 0.18429999 4278190335
-0.059202537 0.012983564 0.1846 4278190335
-0.058865063 0.013004664 0.1849 4278190335
-0.058526173 0.013025764 0.18519999 4278190335
-0.058154516 0.013039831 0.18539999 4278190335
-0.057813056 0.013060931 0.1857 4278190335
-0.05747018 0.013082031 0.18599999 4278190335
-0.057125904 0.013103131 0.18629999 4278190335
-0.056780219 0.013124231 0.1866 4278190335
-0.056433123 0.013145331 0.18689999 4278190335
-0.056054663 0.013159398 0.18709999 4278190335
-0.055675264 0.013173465 0.1873 4278190335
-0.05532442 0.013194566 0.1876 4278190335
-0.054913651 0.013201598 0.18769999 4278190335
-0.054618504 0.013236765 0.1882 4278190335
-0.054205861 0.013243798 0.1883 4278190335
-0.053849854 0.013264898 0.18859999 4278190335
-0.053492442 0.013285998 0.18889999 4278190335
-0.053077456 0.013293032 0.189 4278190335
-0.052717697 0.013314133 0.1893 4278190335
-0.052411757 0.013349298 0.18979999 4278190335
-0.052076101 0.013377433 0.1902 4278190335
-0.051792849 0.013419632 0.1908 4278190335
-0.051399145 0.013433699 0.191 4278190335
-0.051031172 0.013454799 0.19129999 4278190335
-0.050820444 0.013518099 0.19219999 4278190335
-0.050553083 0.013567333 0.1929 4278190335
-0.050490215 0.013672832 0.1944 4278190335
-0.050343368 0.013883833 0.19739999 4278190335
-0.050284661 0.013996367 0.199 4278190335
-0.050168376 0.014094833 0.20039999 4278190335
-0.050020728 0.014186268 0.2017 4278190335
-0.049621325 0.014207367 0.20199999 4278190335
-0.049220521 0.014228468 0.2023 4278190335
-0.04874602 0.014228468 0.2023 4278190335
-0.048366964 0.0142566 0.20269999 4278190335
-0.047891524 0.0142566 0.20269999 4278190335
-0.047439478 0.014263634 0.20279999 4278190335
-0.04701012 0.0142777 0.20299999 4278190335
-0.046533976 0.0142777 0.20299999 4278190335
-0.046012457 0.014263634 0.20279999 4278190335
-0.04551433 0.0142566 0.20269999 4278190335
-0.04503889 0.0142566 0.20269999 4278190335
-0.044519484 0.014242535 0.2025 4278190335
-0.044001013 0.014228468 0.2023 4278190335
-0.043461964 0.014207367 0.20199999 4278190335
-0.042945601 0.0141933 0.20179999 4278190335
-0.042409137 0.014172201 0.2015 4278190335
-0.041894887 0.014158133 0.2013 4278190335
-0.041360997 0.014137033 0.20099999 4278190335
-0.040848859 0.014122968 0.2008 4278190335
-0.040357769 0.014115934 0.2007 4278190335
-0.039847273 0.014101868 0.2005 4278190335
-0.039357357 0.014094833 0.20039999 4278190335
-0.038848501 0.014080767 0.20019999 4278190335
-0.038340583 0.0140667 0.19999999 4278190335
-0.037814673 0.014045601 0.1997 4278190335
-0.037308868 0.014031533 0.19949999 4278190335
-0.036822464 0.0140245 0.19939999 4278190335
-0.036318302 0.014010433 0.19919999 4278190335
-0.035851073 0.014010433 0.19919999 4278190335
-0.035348319 0.013996367 0.199 4278190335
-0.034916613 0.014010433 0.19919999 4278190335
-0.034414798 0.013996367 0.199 4278190335
-0.03401627 0.0140245 0.19939999 4278190335
-0.033632696 0.014059667 0.1999 4278190335
-0.033296552 0.014115934 0.2007 4278190335
-0.032923933 0.014158133 0.2013 4278190335
-0.032596868 0.014221434 0.2022 4278190335
-0.03228147 0.014291768 0.2032 4278190335
-0.032008331 0.014383201 0.20449999 4278190335
-0.031398218 0.014544968 0.2068 4278190335
-0.031017799 0.014594202 0.2075 4278190335
-0.030604668 0.014629368 0.20799999 4278190335
-0.030203674 0.014671569 0.2086 4278190335
-0.029728642 0.014678602 0.2087 4278190335
-0.02935121 0.014734869 0.2095 4278190335
-0.028901147 0.014755968 0.20979999 4278190335
-0.028490301 0.014798169 0.2104 4278190335
-0.028063335 0.014833336 0.21089999 4278190335
-0.027594807 0.014847402 0.2111 4278190335
-0.027151013 0.014875535 0.21149999 4278190335
-0.026717948 0.014910703 0.212 4278190335
-0.026245432 0.014924769 0.2122 4278190335
-0.025771977 0.014938835 0.21239999 4278190335
-0.025297584 0.014952903 0.21259999 4278190335
-0.02481059 0.014959936 0.21269999 4278190335
-0.024311695 0.014959936 0.21269999 4278190335
-0.023835192 0.014974003 0.2129 4278190335
-0.023335829 0.014974003 0.2129 4278190335
-0.022857917 0.014988069 0.2131 4278190335
-0.022358086 0.014988069 0.2131 4278190335
-0.021858253 0.014988069 0.2131 4278190335
-0.021358419 0.014988069 0.2131 4278190335
-0.020858586 0.014988069 0.2131 4278190335
-0.020358756 0.014988069 0.2131 4278190335
-0.019858923 0.014988069 0.2131 4278190335
-0.019340919 0.014974003 0.2129 4278190335
-0.018823856 0.014959936 0.21269999 4278190335
-0.018324962 0.014959936 0.21269999 4278190335
-0.017817685 0.014952903 0.21259999 4278190335
-0.017302733 0.014938835 0.21239999 4278190335
-0.016788721 0.014924769 0.2122 4278190335
-0.016290998 0.014924769 0.2122 4278190335
-0.015793277 0.014924769 0.2122 4278190335
-0.015281139 0.014910703 0.212 4278190335
-0.014783885 0.014910703 0.212 4278190335
-0.014286633 0.014910703 0.212 4278190335
-0.013789382 0.014910703 0.212 4278190335
-0.013304668 0.014924769 0.2122 4278190335
-0.012806947 0.014924769 0.2122 4278190335
-0.012309225 0.014924769 0.2122 4278190335
-0.011811503 0.014924769 0.2122 4278190335
-0.011313782 0.014924769 0.2122 4278190335
-0.01081606 0.014924769 0.2122 4278190335
-0.010308613 0.014910703 0.212 4278190335
-0.0098206159 0.014924769 0.2122 4278190335
-0.0093228947 0.014924769 0.2122 4278190335
-0.0088251727 0.014924769 0.2122 4278190335
-0.0083274515 0.014924769 0.2122 4278190335
-0.0078297304 0.014924769 0.2122 4278190335
-0.0073320079 0.014924769 0.2122 4278190335
-0.0068342863 0.014924769 0.2122 4278190335
-0.0063365647 0.014924769 0.2122 4278190335
-0.005849849 0.014952903 0.21259999 4278190335
-0.0053511891 0.014952903 0.21259999 4278190335
-0.0048593767 0.014974003 0.2129 4278190335
-0.0043682046 0.015002135 0.21329999 4278190335
-0.0038751564 0.01503027 0.2137 4278190335
-0.0033818106 0.015065435 0.21419999 4278190335
-0.0028820864 0.015079503 0.21439999 4278190335
-0.0023858626 0.015121702 0.21499999 4278190335
-0.0018850742 0.015149836 0.2154 4278190335
-0.0013817685 0.015170936 0.2157 4278190335
-0.071341254 0.013024082 0.17919999 4278190335
-0.070920929 0.013024082 0.17919999 4278190335
-0.070500612 0.013024082 0.17919999 4278190335
-0.070158511 0.013038618 0.1794 4278190335
-0.069815464 0.013053155 0.1796 4278190335
-0.069471478 0.01306769 0.17979999 4278190335
-0.069049753 0.01306769 0.17979999 4278190335
-0.068704367 0.013082226 0.17999999 4278190335
-0.06832011 0.013089494 0.18009999 4278190335
-0.068010777 0.013111298 0.1804 4278190335
-0.067625113 0.013118566 0.1805 4278190335
-0.067313433 0.013140369 0.18079999 4278190335
-0.066963352 0.013154905 0.18099999 4278190335
-0.066538811 0.013154905 0.18099999 4278190335
-0.06618733 0.013169441 0.1812 4278190335
-0.065907486 0.013198512 0.18159999 4278190335
-0.065589711 0.013220316 0.18189999 4278190335
-0.065198883 0.013227584 0.182 4278190335
-0.064878762 0.013249388 0.1823 4278190335
-0.064486526 0.013256655 0.18239999 4278190335
-0.064093821 0.013263923 0.18249999 4278190335
-0.06373553 0.013278459 0.18269999 4278190335
-0.063341655 0.013285727 0.18279999 4278190335
-0.062947311 0.013292995 0.1829 4278190335
-0.062586673 0.013307531 0.1831 4278190335
-0.062191155 0.013314799 0.1832 4278190335
-0.061828874 0.013329335 0.18339999 4278190335
-0.061398711 0.013329335 0.18339999 4278190335
-0.061001785 0.013336603 0.18349999 4278190335
-0.06060439 0.013343871 0.18359999 4278190335
-0.060272072 0.013365675 0.1839 4278190335
-0.059873272 0.013372943 0.184 4278190335
-0.059506301 0.013387478 0.18419999 4278190335
-0.059170466 0.013409281 0.18449999 4278190335
-0.05880139 0.013423817 0.1847 4278190335
-0.058462974 0.013445621 0.185 4278190335
-0.058154516 0.013474693 0.18539999 4278190335
-0.057813056 0.013496497 0.1857 4278190335
-0.05747018 0.0135183 0.18599999 4278190335
-0.057156567 0.013547372 0.1864 4278190335
-0.056810647 0.013569176 0.1867 4278190335
-0.056463316 0.013590979 0.18699999 4278190335
-0.056114584 0.013612784 0.1873 4278190335
-0.055704992 0.013620052 0.1874 4278190335
-0.055353906 0.013641854 0.18769999 4278190335
-0.054972164 0.01365639 0.18789999 4278190335
-0.054618504 0.013678194 0.1882 4278190335
-0.054205861 0.013685462 0.1883 4278190335
-0.053849854 0.013707265 0.18859999 4278190335
-0.053492442 0.013729069 0.18889999 4278190335
-0.053133622 0.013750874 0.1892 4278190335
-0.05277339 0.013772677 0.18949999 4278190335
-0.052439369 0.013801749 0.1899 4278190335
-0.052130856 0.013838087 0.19039999 4278190335
-0.051847141 0.013881695 0.191 4278190335
-0.051479872 0.013903499 0.19129999 4278190335
-0.051057849 0.013910767 0.19139999 4278190335
-0.050820444 0.01396891 0.19219999 4278190335
-0.050605495 0.014034321 0.19309999 4278190335
-0.050542161 0.01414334 0.1946 4278190335
-0.050445382 0.014375913 0.1978 4278190335
-0.050385732 0.014492199 0.19939999 4278190335
-0.05019341 0.014572146 0.2005 4278190335
-0.050020728 0.014659362 0.2017 4278190335
-0.049572196 0.014666628 0.20179999 4278190335
-0.049147528 0.014681164 0.20199999 4278190335
-0.04874602 0.014702968 0.2023 4278190335
-0.048319243 0.014717504 0.2025 4278190335
-0.047891524 0.01473204 0.20269999 4278190335
-0.047439478 0.014739308 0.20279999 4278190335
-0.046963803 0.014739308 0.20279999 4278190335
-0.046488129 0.014739308 0.20279999 4278190335
-0.046012457 0.014739308 0.20279999 4278190335
-0.045536786 0.014739308 0.20279999 4278190335
-0.04503889 0.01473204 0.20269999 4278190335
-0.044519484 0.014717504 0.2025 4278190335
-0.044001013 0.014702968 0.2023 4278190335
-0.043461964 0.014681164 0.20199999 4278190335
-0.042945601 0.014666628 0.20179999 4278190335
-0.042451229 0.014659362 0.2017 4278190335
-0.041894887 0.01463029 0.2013 4278190335
-0.041402154 0.014623022 0.20119999 4278190335
-0.040848859 0.01459395 0.2008 4278190335
-0.040357769 0.014586682 0.2007 4278190335
-0.039847273 0.014572146 0.2005 4278190335
-0.039357357 0.014564878 0.20039999 4278190335
-0.038848501 0.014550342 0.20019999 4278190335
-0.038340583 0.014535806 0.19999999 4278190335
-0.037871476 0.014535806 0.19999999 4278190335
-0.037383672 0.014528539 0.1999 4278190335
-0.036877867 0.014514003 0.1997 4278190335
-0.036409464 0.014514003 0.1997 4278190335
-0.035941061 0.014514003 0.1997 4278190335
-0.035508186 0.014528539 0.1999 4278190335
-0.035039313 0.014528539 0.1999 4278190335
-0.034570441 0.014528539 0.1999 4278190335
-0.034152746 0.014550342 0.20019999 4278190335
-0.033817768 0.014608486 0.20099999 4278190335
-0.033479042 0.014666628 0.20179999 4278190335
-0.033120204 0.014717504 0.2025 4278190335
-0.032790322 0.014782916 0.2034 4278190335
-0.032472104 0.014855594 0.20439999 4278190335
-0.032149199 0.014928273 0.20539999 4278190335
-0.031474128 0.015066364 0.20729999 4278190335
-0.03107759 0.01510997 0.20789999 4278190335
-0.030634096 0.015131774 0.20819999 4278190335
-0.030203674 0.015160847 0.2086 4278190335
-0.029757129 0.01518265 0.20889999 4278190335
-0.02935121 0.015226258 0.2095 4278190335
-0.028928697 0.015262597 0.20999999 4278190335
-0.028490301 0.015291669 0.2104 4278190335
-0.028063335 0.015328008 0.21089999 4278190335
-0.027594807 0.015342544 0.2111 4278190335
-0.027151013 0.015371615 0.21149999 4278190335
-0.026717948 0.015407955 0.212 4278190335
-0.026245432 0.015422491 0.2122 4278190335
-0.025771977 0.015437027 0.21239999 4278190335
-0.025297584 0.015451563 0.21259999 4278190335
-0.02481059 0.015458831 0.21269999 4278190335
-0.024334555 0.015473367 0.2129 4278190335
-0.023835192 0.015473367 0.2129 4278190335
-0.023357751 0.015487903 0.2131 4278190335
-0.022857917 0.015487903 0.2131 4278190335
-0.022358086 0.015487903 0.2131 4278190335
-0.021858253 0.015487903 0.2131 4278190335
-0.021358419 0.015487903 0.2131 4278190335
-0.020858586 0.015487903 0.2131 4278190335
-0.020339647 0.015473367 0.2129 4278190335
-0.019821646 0.015458831 0.21269999 4278190335
-0.019322751 0.015458831 0.21269999 4278190335
-0.018797306 0.015437027 0.21239999 4278190335
-0.018299114 0.015437027 0.21239999 4278190335
-0.017767401 0.015407955 0.212 4278190335
-0.017270148 0.015407955 0.212 4278190335
-0.016757073 0.015393419 0.21179999 4278190335
-0.016260289 0.015393419 0.21179999 4278190335
-0.015763506 0.015393419 0.21179999 4278190335
-0.015266722 0.015393419 0.21179999 4278190335
-0.014769939 0.015393419 0.21179999 4278190335
-0.014273155 0.015393419 0.21179999 4278190335
-0.013776372 0.015393419 0.21179999 4278190335
-0.013279589 0.015393419 0.21179999 4278190335
-0.012794876 0.015407955 0.212 4278190335
-0.012297623 0.015407955 0.212 4278190335
-0.01180037 0.015407955 0.212 4278190335
-0.011303118 0.015407955 0.212 4278190335
-0.010805866 0.015407955 0.212 4278190335
-0.010318338 0.015422491 0.2122 4278190335
-0.0098206159 0.015422491 0.2122 4278190335
-0.0093228947 0.015422491 0.2122 4278190335
-0.0088251727 0.015422491 0.2122 4278190335
-0.0083274515 0.015422491 0.2122 4278190335
-0.0078297304 0.015422491 0.2122 4278190335
-0.0073250975 0.015407955 0.212 4278190335
-0.0068342863 0.015422491 0.2122 4278190335
-0.0063365647 0.015422491 0.2122 4278190335
-0.0058443458 0.015437027 0.21239999 4278190335
-0.0053511891 0.015451563 0.21259999 4278190335
-0.0048593767 0.015473367 0.2129 4278190335
-0.0043682046 0.015502438 0.21329999 4278190335
-0.0038787832 0.015546045 0.2139 4278190335
-0.0033818106 0.015567848 0.21419999 4278190335
-0.0028847749 0.015596921 0.2146 4278190335
-0.0023836433 0.015611457 0.2148 4278190335
-0.0018850742 0.015655063 0.2154 4278190335
-0.0013817685 0.015676867 0.2157 4278190335
-0.071341254 0.013444402 0.17919999 4278190335
-0.070960507 0.013451905 0.1793 4278190335
-0.070579298 0.013459407 0.1794 4278190335
-0.070236728 0.013474412 0.1796 4278190335
-0.069893211 0.013489417 0.17979999 4278190335
-0.069587395 0.013511924 0.18009999 4278190335
-0.069280177 0.013534432 0.1804 4278190335
-0.068895213 0.013541934 0.1805 4278190335
-0.06850978 0.013549437 0.1806 4278190335
-0.068161577 0.013564441 0.18079999 4278190335
-0.067774966 0.013571944 0.18089999 4278190335
-0.067350663 0.013571944 0.18089999 4278190335
-0.066963352 0.013579446 0.18099999 4278190335
-0.066612333 0.013594451 0.1812 4278190335
-0.066223852 0.013601954 0.1813 4278190335
-0.065834902 0.013609457 0.1814 4278190335
-0.065481536 0.01362446 0.18159999 4278190335
-0.065091409 0.013631963 0.18169999 4278190335
-0.064771995 0.013654471 0.182 4278190335
-0.064380467 0.013661973 0.1821 4278190335
-0.064023584 0.013676979 0.1823 4278190335
-0.063665763 0.013691983 0.18249999 4278190335
-0.063307002 0.013706988 0.18269999 4278190335
-0.062912889 0.01371449 0.18279999 4278190335
-0.062518314 0.013721993 0.1829 4278190335
-0.062157206 0.013736999 0.1831 4278190335
-0.061761454 0.0137445 0.1832 4278190335
-0.061331756 0.0137445 0.1832 4278190335
-0.061001785 0.013767008 0.18349999 4278190335
-0.06060439 0.01377451 0.18359999 4278190335
-0.060239296 0.013789515 0.1838 4278190335
-0.059873272 0.01380452 0.184 4278190335
-0.059538607 0.013827027 0.18429999 4278190335
-0.059202537 0.013849535 0.1846 4278190335
-0.058865063 0.013872042 0.1849 4278190335
-0.058526173 0.01389455 0.18519999 4278190335
-0.058217254 0.01392456 0.1856 4278190335
-0.05787532 0.013947067 0.1859 4278190335
-0.057501078 0.013962071 0.18609999 4278190335
-0.057156567 0.013984579 0.1864 4278190335
-0.056810647 0.014007087 0.1867 4278190335
-0.056463316 0.014029593 0.18699999 4278190335
-0.056114584 0.014052101 0.1873 4278190335
-0.05576444 0.014074609 0.1876 4278190335
-0.055353906 0.01408211 0.18769999 4278190335
-0.054972164 0.014097116 0.18789999 4278190335
-0.054647528 0.014127126 0.1883 4278190335
-0.05423465 0.014134629 0.1884 4278190335
-0.053849854 0.014149632 0.18859999 4278190335
-0.053492442 0.014172141 0.18889999 4278190335
-0.053133622 0.014194648 0.1892 4278190335
-0.05277339 0.014217155 0.18949999 4278190335
-0.052439369 0.014247165 0.1899 4278190335
-0.052158237 0.01429218 0.19049999 4278190335
-0.051874287 0.014337195 0.1911 4278190335
-0.051506784 0.014359701 0.19139999 4278190335
-0.051111203 0.014374707 0.19159999 4278190335
-0.050846886 0.014427224 0.19229999 4278190335
-0.050631702 0.014494746 0.19319999 4278190335
-0.050594103 0.014614785 0.19479999 4278190335
-0.050394375 0.014824854 0.19759999 4278190335
-0.050284661 0.014929889 0.199 4278190335
-0.050168376 0.015034923 0.20039999 4278190335
-0.04997113 0.015117451 0.2015 4278190335
-0.049547635 0.015132455 0.2017 4278190335
-0.049196191 0.015169967 0.2022 4278190335
-0.048721924 0.015169967 0.2022 4278190335
-0.048319243 0.015192475 0.2025 4278190335
-0.047891524 0.015207479 0.20269999 4278190335
-0.047416084 0.015207479 0.20269999 4278190335
-0.046963803 0.015214982 0.20279999 4278190335
-0.046488129 0.015214982 0.20279999 4278190335
-0.046012457 0.015214982 0.20279999 4278190335
-0.04551433 0.015207479 0.20269999 4278190335
-0.04503889 0.015207479 0.20269999 4278190335
-0.044519484 0.015192475 0.2025 4278190335
-0.043979261 0.015169967 0.2022 4278190335
-0.043461964 0.015154962 0.20199999 4278190335
-0.042924322 0.015132455 0.2017 4278190335
-0.042409137 0.015117451 0.2015 4278190335
-0.041874073 0.015094942 0.20119999 4278190335
-0.041360997 0.015079937 0.20099999 4278190335
-0.040848859 0.015064933 0.2008 4278190335
-0.04031755 0.015042425 0.2005 4278190335
-0.039847273 0.015042425 0.2005 4278190335
-0.039357357 0.015034923 0.20039999 4278190335
-0.038887311 0.015034923 0.20039999 4278190335
-0.038417265 0.015034923 0.20039999 4278190335
-0.037909351 0.015019918 0.20019999 4278190335
-0.037439775 0.015019918 0.20019999 4278190335
-0.037007134 0.015034923 0.20039999 4278190335
-0.036500622 0.015019918 0.20019999 4278190335
-0.036067042 0.015034923 0.20039999 4278190335
-0.035614762 0.015042425 0.2005 4278190335
-0.035144482 0.015042425 0.2005 4278190335
-0.03470879 0.015057431 0.2007 4278190335
-0.034289218 0.015079937 0.20099999 4278190335
-0.033952367 0.015139957 0.20179999 4278190335
-0.033644944 0.015214982 0.20279999 4278190335
-0.033267405 0.015259997 0.2034 4278190335
-0.032951534 0.015335021 0.20439999 4278190335
-0.032630973 0.015410045 0.20539999 4278190335
-0.032290068 0.015477568 0.20629999 4278190335
-0.031534862 0.015582602 0.2077 4278190335
-0.031092539 0.015605109 0.20799999 4278190335
-0.030692952 0.015650125 0.2086 4278190335
-0.030218154 0.015657628 0.2087 4278190335
-0.029785618 0.015687637 0.20909999 4278190335
-0.02935121 0.015717646 0.2095 4278190335
-0.028928697 0.015755158 0.20999999 4278190335
-0.028490301 0.015785169 0.2104 4278190335
-0.028036723 0.015807675 0.21069999 4278190335
-0.027620951 0.015852692 0.2113 4278190335
-0.027163852 0.015875198 0.21159999 4278190335
-0.026717948 0.015905209 0.212 4278190335
-0.026270168 0.015935218 0.21239999 4278190335
-0.025796244 0.015950223 0.21259999 4278190335
-0.025309484 0.015957724 0.21269999 4278190335
-0.024833919 0.01597273 0.2129 4278190335
-0.024357416 0.015987735 0.2131 4278190335
-0.023857582 0.015987735 0.2131 4278190335
-0.023379672 0.016002739 0.21329999 4278190335
-0.02287937 0.016002739 0.21329999 4278190335
-0.022379069 0.016002739 0.21329999 4278190335
-0.021858253 0.015987735 0.2131 4278190335
-0.021358419 0.015987735 0.2131 4278190335
-0.020858586 0.015987735 0.2131 4278190335
-0.020339647 0.01597273 0.2129 4278190335
-0.019812327 0.015950223 0.21259999 4278190335
-0.019313667 0.015950223 0.21259999 4278190335
-0.018797306 0.015935218 0.21239999 4278190335
-0.018264653 0.015905209 0.212 4278190335
-0.017767401 0.015905209 0.212 4278190335
-0.017237563 0.015875198 0.21159999 4278190335
-0.016757073 0.015890203 0.21179999 4278190335
-0.016244935 0.015875198 0.21159999 4278190335
-0.01574862 0.015875198 0.21159999 4278190335
-0.015252306 0.015875198 0.21159999 4278190335
-0.014755991 0.015875198 0.21159999 4278190335
-0.014273155 0.015890203 0.21179999 4278190335
-0.013776372 0.015890203 0.21179999 4278190335
-0.013279589 0.015890203 0.21179999 4278190335
-0.012782806 0.015890203 0.21179999 4278190335
-0.012297623 0.015905209 0.212 4278190335
-0.011811503 0.015920212 0.2122 4278190335
-0.011313782 0.015920212 0.2122 4278190335
-0.01081606 0.015920212 0.2122 4278190335
-0.010318338 0.015920212 0.2122 4278190335
-0.0098206159 0.015920212 0.2122 4278190335
-0.0093228947 0.015920212 0.2122 4278190335
-0.0088251727 0.015920212 0.2122 4278190335
-0.0083274515 0.015920212 0.2122 4278190335
-0.0078371093 0.015935218 0.21239999 4278190335
-0.0073320079 0.015920212 0.2122 4278190335
-0.0068342863 0.015920212 0.2122 4278190335
-0.0063365647 0.015920212 0.2122 4278190335
-0.005849849 0.015950223 0.21259999 4278190335
-0.005353706 0.015957724 0.21269999 4278190335
-0.0048685065 0.016002739 0.21329999 4278190335
-0.0043763961 0.01603275 0.2137 4278190335
-0.0038805967 0.016055258 0.214 4278190335
-0.0033849683 0.016085267 0.21439999 4278190335
-0.0028874634 0.016115278 0.2148 4278190335
-0.0023880822 0.016145287 0.21519999 4278190335
-0.0018868245 0.016175296 0.2156 4278190335
-0.071500495 0.01389567 0.1796 4278190335
-0.071118817 0.013903407 0.1797 4278190335
-0.070815347 0.013926618 0.17999999 4278190335
-0.070471369 0.013942092 0.1802 4278190335
-0.070165321 0.013965303 0.1805 4278190335
-0.069857866 0.013988513 0.18079999 4278190335
-0.069510601 0.014003987 0.18099999 4278190335
-0.069200568 0.014027199 0.1813 4278190335
-0.068775326 0.014027199 0.1813 4278190335
-0.068350077 0.014027199 0.1813 4278190335
-0.067962296 0.014034936 0.1814 4278190335
-0.067536823 0.014034936 0.1814 4278190335
-0.067185327 0.014050409 0.18159999 4278190335
-0.066759378 0.014050409 0.18159999 4278190335
-0.066333435 0.014050409 0.18159999 4278190335
-0.065907486 0.014050409 0.18159999 4278190335
-0.065481536 0.014050409 0.18159999 4278190335
-0.065091409 0.014058147 0.18169999 4278190335
-0.064736404 0.014073621 0.18189999 4278190335
-0.064380467 0.014089095 0.1821 4278190335
-0.064023584 0.014104569 0.1823 4278190335
-0.063665763 0.014120042 0.18249999 4278190335
-0.063237697 0.014120042 0.18249999 4278190335
-0.062878475 0.014135516 0.18269999 4278190335
-0.062518314 0.014150991 0.1829 4278190335
-0.062157206 0.014166465 0.1831 4278190335
-0.061761454 0.014174202 0.1832 4278190335
-0.061398711 0.014189675 0.18339999 4278190335
-0.061001785 0.014197413 0.18349999 4278190335
-0.060670406 0.014220624 0.1838 4278190335
-0.060272072 0.014228362 0.1839 4278190335
-0.059938345 0.014251571 0.18419999 4278190335
-0.059603218 0.014274783 0.18449999 4278190335
-0.059202537 0.01428252 0.1846 4278190335
-0.058865063 0.014305731 0.1849 4278190335
-0.058557779 0.014336679 0.18529999 4278190335
-0.058217254 0.01435989 0.1856 4278190335
-0.057906449 0.014390837 0.18599999 4278190335
-0.057562876 0.014414049 0.18629999 4278190335
-0.057248559 0.014444998 0.1867 4278190335
-0.056901932 0.014468208 0.18699999 4278190335
-0.056493513 0.014475945 0.18709999 4278190335
-0.056144543 0.014499157 0.1874 4278190335
-0.05576444 0.014514631 0.1876 4278190335
-0.055353906 0.014522367 0.18769999 4278190335
-0.054972164 0.014537841 0.18789999 4278190335
-0.054618504 0.014561052 0.1882 4278190335
-0.054205861 0.01456879 0.1883 4278190335
-0.053792752 0.014576526 0.1884 4278190335
-0.053492442 0.014615212 0.18889999 4278190335
-0.053077456 0.014622948 0.189 4278190335
-0.05277339 0.014661633 0.18949999 4278190335
-0.052439369 0.014692581 0.1899 4278190335
-0.052158237 0.014739003 0.19049999 4278190335
-0.051847141 0.014777689 0.191 4278190335
-0.051479872 0.0148009 0.19129999 4278190335
-0.051111203 0.014824111 0.19159999 4278190335
-0.050820444 0.014870533 0.19219999 4278190335
-0.050631702 0.014947902 0.19319999 4278190335
-0.050620075 0.015079432 0.19489999 4278190335
-0.050259393 0.015388913 0.1989 4278190335
-0.050118309 0.015489493 0.20019999 4278190335
-0.049921528 0.015574601 0.2013 4278190335
-0.049498502 0.015590075 0.2015 4278190335
-0.049147528 0.015628759 0.20199999 4278190335
-0.048721924 0.015644234 0.2022 4278190335
-0.048247658 0.015644234 0.2022 4278190335
-0.047891524 0.015682919 0.20269999 4278190335
-0.047416084 0.015682919 0.20269999 4278190335
-0.046963803 0.015690656 0.20279999 4278190335
-0.046465207 0.015682919 0.20269999 4278190335
-0.046012457 0.015690656 0.20279999 4278190335
-0.04551433 0.015682919 0.20269999 4278190335
-0.044994455 0.015667446 0.2025 4278190335
-0.044475514 0.015651971 0.2023 4278190335
-0.043979261 0.015644234 0.2022 4278190335
-0.043418929 0.015613285 0.20179999 4278190335
-0.042924322 0.015605549 0.2017 4278190335
-0.042409137 0.015590075 0.2015 4278190335
-0.041874073 0.015566863 0.20119999 4278190335
-0.041360997 0.015551389 0.20099999 4278190335
-0.040848859 0.015535916 0.2008 4278190335
-0.04031755 0.015512705 0.2005 4278190335
-0.039827399 0.015504967 0.20039999 4278190335
-0.039357357 0.015504967 0.20039999 4278190335
-0.038887311 0.015504967 0.20039999 4278190335
-0.038436439 0.015512705 0.2005 4278190335
-0.037947223 0.015504967 0.20039999 4278190335
-0.037495878 0.015512705 0.2005 4278190335
-0.037025601 0.015512705 0.2005 4278190335
-0.036591787 0.015528179 0.2007 4278190335
-0.036121037 0.015528179 0.2007 4278190335
-0.035703577 0.015551389 0.20099999 4278190335
-0.035267182 0.015566863 0.20119999 4278190335
-0.034812555 0.015574601 0.2013 4278190335
-0.034408636 0.015605549 0.2017 4278190335
-0.034036491 0.015651971 0.2023 4278190335
-0.033744484 0.015737079 0.2034 4278190335
-0.033349182 0.015775762 0.20389999 4278190335
-0.03306438 0.015868608 0.2051 4278190335
-0.032368328 0.016000137 0.2068 4278190335
-0.031580411 0.01609298 0.20799999 4278190335
-0.031182231 0.016139403 0.2086 4278190335
-0.030707667 0.01614714 0.2087 4278190335
-0.030305028 0.016193561 0.2093 4278190335
-0.029814109 0.016193561 0.2093 4278190335
-0.029393239 0.016232247 0.20979999 4278190335
-0.028928697 0.01624772 0.20999999 4278190335
-0.028503843 0.016286407 0.2105 4278190335
-0.028063335 0.016317353 0.21089999 4278190335
-0.027620951 0.016348302 0.2113 4278190335
-0.027163852 0.016371513 0.21159999 4278190335
-0.026717948 0.016402461 0.212 4278190335
-0.026270168 0.016433408 0.21239999 4278190335
-0.025796244 0.016448883 0.21259999 4278190335
-0.025309484 0.016456619 0.21269999 4278190335
-0.024833919 0.016472094 0.2129 4278190335
-0.024357416 0.016487569 0.2131 4278190335
-0.023879971 0.016503042 0.21329999 4278190335
-0.023379672 0.016503042 0.21329999 4278190335
-0.02287937 0.016503042 0.21329999 4278190335
-0.022379069 0.016503042 0.21329999 4278190335
-0.021858253 0.016487569 0.2131 4278190335
-0.021358419 0.016487569 0.2131 4278190335
-0.020839009 0.016472094 0.2129 4278190335
-0.02032054 0.016456619 0.21269999 4278190335
-0.019812327 0.016448883 0.21259999 4278190335
-0.019295497 0.016433408 0.21239999 4278190335
-0.018779607 0.016417935 0.2122 4278190335
-0.018247424 0.016386986 0.21179999 4278190335
-0.017750639 0.016386986 0.21179999 4278190335
-0.017229415 0.016363775 0.21149999 4278190335
-0.016733337 0.016363775 0.21149999 4278190335
-0.016237257 0.016363775 0.21149999 4278190335
-0.015741177 0.016363775 0.21149999 4278190335
