# .PCD v0.7 - Point Cloud Data file format
VERSION 0.7
FIELDS x y z rgb
SIZE 4 4 4 4
TYPE F F F U
COUNT 1 1 1 1
WIDTH 1095
HEIGHT 1
VIEWPOINT 0 0 0 1 0 0 0
POINTS 1095
DATA ascii
0.018542968 0.014823917 0.1542 4278190335
0.018904647 0.014823917 0.1542 4278190335
0.019266328 0.014823917 0.1542 4278190335
0.019602552 0.01480469 0.154 4278190335
0.019937836 0.014785463 0.1538 4278190335
0.021200087 0.014660489 0.1525 4278190335
0.021501234 0.014622035 0.1521 4278190335
0.02185799 0.014622035 0.1521 4278190335
0.022586338 0.014631648 0.1522 4278190335
0.022973478 0.014650875 0.1524 4278190335
0.023392171 0.014689328 0.15279999 4278190335
0.023828289 0.014737396 0.1533 4278190335
0.025927033 0.014910438 0.1551 4278190335
0.026307773 0.01492005 0.15519999 4278190335
0.026671799 0.01492005 0.15519999 4278190335
0.032690864 0.014843143 0.15439999 4278190335
0.033480093 0.014871984 0.1547 4278190335
0.033842947 0.014871984 0.1547 4278190335
0.034227911 0.014881597 0.1548 4278190335
0.034568653 0.014871984 0.1547 4278190335
0.034931507 0.014871984 0.1547 4278190335
0.035294361 0.014871984 0.1547 4278190335
0.035611115 0.014852757 0.15449999 4278190335
0.035950217 0.014843143 0.15439999 4278190335
0.036288846 0.014833529 0.15429999 4278190335
0.036579505 0.01480469 0.154 4278190335
0.036940716 0.01480469 0.154 4278190335
0.037277706 0.014795076 0.1539 4278190335
0.037614226 0.014785463 0.1538 4278190335
0.037974969 0.014785463 0.1538 4278190335
0.038285859 0.014766236 0.15359999 4278190335
0.038595811 0.014747008 0.15339999 4278190335
0.038930226 0.014737396 0.1533 4278190335
0.039238535 0.014718168 0.1531 4278190335
0.039597638 0.014718168 0.1531 4278190335
0.039904539 0.014698941 0.1529 4278190335
0.040210504 0.014679714 0.15269999 4278190335
0.040515535 0.014660489 0.1525 4278190335
0.04087323 0.014660489 0.1525 4278190335
0.041230921 0.014660489 0.1525 4278190335
0.041588616 0.014660489 0.1525 4278190335
0.041918803 0.014650875 0.1524 4278190335
0.042304002 0.014660489 0.1525 4278190335
0.04268967 0.014670101 0.15259999 4278190335
0.043047596 0.014670101 0.15259999 4278190335
0.043462414 0.014689328 0.15279999 4278190335
0.043849487 0.014698941 0.1529 4278190335
0.044208117 0.014698941 0.1529 4278190335
0.044595897 0.014708555 0.153 4278190335
0.045042913 0.014737396 0.1533 4278190335
0.045402482 0.014737396 0.1533 4278190335
0.045791898 0.014747008 0.15339999 4278190335
0.046181791 0.014756622 0.15349999 4278190335
0.046572149 0.014766236 0.15359999 4278190335
0.046932425 0.014766236 0.15359999 4278190335
0.047323488 0.014775849 0.15369999 4278190335
0.047683995 0.014775849 0.15369999 4278190335
0.048075765 0.014785463 0.1538 4278190335
0.048436508 0.014785463 0.1538 4278190335
0.048765521 0.014775849 0.15369999 4278190335
0.049094066 0.014766236 0.15359999 4278190335
0.049389947 0.014747008 0.15339999 4278190335
0.049717322 0.014737396 0.1533 4278190335
0.05001156 0.014718168 0.1531 4278190335
0.05030486 0.014698941 0.1529 4278190335
0.050564084 0.014670101 0.15259999 4278190335
0.050888646 0.014660489 0.1525 4278190335
0.05117913 0.014641262 0.1523 4278190335
0.051434837 0.01461242 0.152 4278190335
0.051723212 0.014593193 0.15179999 4278190335
0.052044954 0.01458358 0.15169999 4278190335
0.052366234 0.014573968 0.1516 4278190335
0.052687034 0.014564354 0.1515 4278190335
0.053007372 0.014554741 0.1514 4278190335
0.053327236 0.014545127 0.1513 4278190335
0.053646635 0.014535514 0.1512 4278190335
0.053929847 0.014516287 0.15099999 4278190335
0.054248072 0.014506673 0.15089999 4278190335
0.054493465 0.014477833 0.1506 4278190335
0.054701023 0.014439379 0.15019999 4278190335
0.054906715 0.014400925 0.1498 4278190335
0.055184297 0.014381698 0.1496 4278190335
0.055386696 0.014343244 0.14919999 4278190335
0.055549867 0.014295178 0.1487 4278190335
0.055785872 0.014266337 0.14839999 4278190335
0.055869166 0.014199043 0.1477 4278190335
0.055911116 0.014122136 0.1469 4278190335
0.055711467 0.013651077 0.14199999 4278190335
0.055807728 0.013593396 0.14139999 4278190335
0.056059979 0.013574169 0.14119999 4278190335
0.056311298 0.013554944 0.141 4278190335
0.056601848 0.01354533 0.1409 4278190335
0.056891926 0.013535717 0.1408 4278190335
0.057181533 0.013526103 0.1407 4278190335
0.057552427 0.013535717 0.1408 4278190335
0.057841562 0.013526103 0.1407 4278190335
0.058212925 0.013535717 0.1408 4278190335
0.058584757 0.01354533 0.1409 4278190335
0.058957055 0.013554944 0.141 4278190335
0.059413914 0.013583783 0.14129999 4278190335
0.059787624 0.013593396 0.14139999 4278190335
0.060204316 0.013612623 0.1416 4278190335
0.060621947 0.01363185 0.1418 4278190335
0.062550582 0.01354533 0.1409 4278190335
0.062702551 0.013506875 0.14049999 4278190335
0.062897511 0.013478035 0.14019999 4278190335
0.063000865 0.013429969 0.1397 4278190335
0.063283205 0.013420355 0.13959999 4278190335
0.063519508 0.013401127 0.13939999 4278190335
0.063754879 0.013381902 0.1392 4278190335
0.064081378 0.013381902 0.1392 4278190335
0.064361602 0.013372288 0.1391 4278190335
0.064641364 0.013362674 0.139 4278190335
0.064920649 0.013353061 0.1389 4278190335
0.065199472 0.013343447 0.1388 4278190335
0.065525025 0.013343447 0.1388 4278190335
0.065850586 0.013343447 0.1388 4278190335
0.066176146 0.013343447 0.1388 4278190335
0.066453792 0.013333834 0.13869999 4278190335
0.066730969 0.01332422 0.13859999 4278190335
0.06705606 0.01332422 0.13859999 4278190335
0.067332536 0.013314607 0.13849999 4278190335
0.067657396 0.013314607 0.13849999 4278190335
0.067982249 0.013314607 0.13849999 4278190335
0.068257794 0.013304994 0.1384 4278190335
0.068483308 0.013285767 0.1382 4278190335
0.068757668 0.013276153 0.1381 4278190335
0.06908159 0.013276153 0.1381 4278190335
0.069304988 0.013256926 0.13789999 4278190335
0.069527447 0.013237699 0.13769999 4278190335
0.069698259 0.01320886 0.1374 4278190335
0.069969565 0.013199246 0.1373 4278190335
0.070189223 0.013180019 0.1371 4278190335
0.070407927 0.013160792 0.13689999 4278190335
0.0706257 0.013141565 0.13669999 4278190335
0.070894442 0.013131953 0.1366 4278190335
0.071162708 0.013122339 0.1365 4278190335
0.071482867 0.013122339 0.1365 4278190335
0.071803041 0.013122339 0.1365 4278190335
0.0721232 0.013122339 0.1365 4278190335
0.072443366 0.013122339 0.1365 4278190335
0.072816841 0.013131953 0.1366 4278190335
0.073083699 0.013122339 0.1365 4278190335
0.073403858 0.013122339 0.1365 4278190335
0.073778041 0.013131953 0.1366 4278190335
0.074098438 0.013131953 0.1366 4278190335
0.090592347 0.015583378 0.1621 4278190335
-0.011717293 0.014584871 0.1481 4278190335
-0.011369919 0.014584871 0.1481 4278190335
-0.011000218 0.014555327 0.1478 4278190335
-0.010285958 0.014525782 0.14749999 4278190335
-0.0099197756 0.014496239 0.1472 4278190335
-0.0095550008 0.014466695 0.1469 4278190335
-0.0092041725 0.014456847 0.1468 4278190335
-0.0088538127 0.014446998 0.14669999 4278190335
-0.0085039223 0.01443715 0.14659999 4278190335
-0.0081433691 0.014407607 0.1463 4278190335
-0.0078002182 0.014407607 0.1463 4278190335
-0.0074519697 0.014397759 0.1462 4278190335
-0.007109053 0.014397759 0.1462 4278190335
-0.0067661363 0.014397759 0.1462 4278190335
-0.00642322 0.014397759 0.1462 4278190335
-0.0060803029 0.014397759 0.1462 4278190335
-0.0057373862 0.014397759 0.1462 4278190335
-0.0053981598 0.014407607 0.1463 4278190335
-0.0050584632 0.014417454 0.14639999 4278190335
-0.0047150776 0.014417454 0.14639999 4278190335
-0.0043746778 0.014427301 0.14649999 4278190335
-0.0040365611 0.014446998 0.14669999 4278190335
-0.0036949886 0.014456847 0.1468 4278190335
-0.0033529471 0.014466695 0.1469 4278190335
-0.0030083884 0.014466695 0.1469 4278190335
-0.0026656436 0.014476542 0.147 4278190335
-0.0023208505 0.014476542 0.147 4278190335
-0.0019774018 0.014486391 0.1471 4278190335
-0.001632374 0.014486391 0.1471 4278190335
-0.0012882216 0.014496239 0.1472 4278190335
-0.00094295939 0.014496239 0.1472 4278190335
-0.00059810322 0.014506086 0.14729999 4278190335
-0.00025243504 0.014496239 0.1472 4278190335
9.2890201e-05 0.014506086 0.14729999 4278190335
0.00043808934 0.014496239 0.1472 4278190335
0.00078335148 0.014496239 0.1472 4278190335
0.0011286137 0.014496239 0.1472 4278190335
0.001474877 0.014506086 0.14729999 4278190335
0.0018216096 0.014515934 0.14739999 4278190335
0.002171752 0.014545478 0.1477 4278190335
0.0025335315 0.01463411 0.1486 4278190335
0.0029014722 0.01473259 0.1496 4278190335
0.0032762783 0.014840919 0.1507 4278190335
0.0036562439 0.014949245 0.15179999 4278190335
0.0040334407 0.015028029 0.15259999 4278190335
0.0044259015 0.015146205 0.1538 4278190335
0.0048208786 0.015254534 0.1549 4278190335
0.0052109757 0.015333317 0.1557 4278190335
0.0055940817 0.015382557 0.15619999 4278190335
0.0059719016 0.015412102 0.1565 4278190335
0.0063430276 0.015421949 0.1566 4278190335
0.006714623 0.015431797 0.1567 4278190335
0.0070776483 0.015421949 0.1566 4278190335
0.0074449587 0.015421949 0.1566 4278190335
0.0078122681 0.015421949 0.1566 4278190335
0.0081743551 0.015412102 0.1565 4278190335
0.0085359728 0.015402253 0.1564 4278190335
0.0088971211 0.015392405 0.15629999 4278190335
0.0092459479 0.015362862 0.156 4278190335
0.009605689 0.015353014 0.1559 4278190335
0.0099585652 0.015333317 0.1557 4278190335
0.010317134 0.015323469 0.1556 4278190335
0.010675234 0.015313621 0.15549999 4278190335
0.011032864 0.015303773 0.15539999 4278190335
0.011390025 0.015293925 0.15529999 4278190335
0.011739149 0.01527423 0.1551 4278190335
0.012095137 0.015264382 0.155 4278190335
0.012450657 0.015254534 0.1549 4278190335
0.012805707 0.015244685 0.1548 4278190335
0.013151781 0.01522499 0.15459999 4278190335
0.013505659 0.015215141 0.15449999 4278190335
0.013850091 0.015195445 0.15429999 4278190335
0.014202796 0.015185598 0.1542 4278190335
0.014564477 0.015185598 0.1542 4278190335
0.014926158 0.015185598 0.1542 4278190335
0.015287839 0.015185598 0.1542 4278190335
0.01564952 0.015185598 0.1542 4278190335
0.016011201 0.015185598 0.1542 4278190335
0.016372882 0.015185598 0.1542 4278190335
0.016745413 0.015195445 0.15429999 4278190335
0.017107328 0.015195445 0.15429999 4278190335
0.017469244 0.015195445 0.15429999 4278190335
0.01783116 0.015195445 0.15429999 4278190335
0.018204866 0.015205293 0.15439999 4278190335
0.018554991 0.015195445 0.15429999 4278190335
0.018916905 0.015195445 0.15429999 4278190335
0.019266328 0.015185598 0.1542 4278190335
0.019615281 0.01517575 0.1541 4278190335
0.0199508 0.015156054 0.1539 4278190335
0.020924395 0.01507727 0.1531 4278190335
0.021227889 0.015037877 0.15269999 4278190335
0.021529507 0.014998486 0.1523 4278190335
0.02187236 0.014988638 0.1522 4278190335
0.022571499 0.01497879 0.1521 4278190335
0.022973478 0.015008334 0.1524 4278190335
0.023392171 0.015047725 0.15279999 4278190335
0.023828289 0.015096966 0.1533 4278190335
0.024675529 0.01517575 0.1541 4278190335
0.025118211 0.01522499 0.15459999 4278190335
0.025993897 0.015313621 0.15549999 4278190335
0.026375579 0.015323469 0.1556 4278190335
0.0267921 0.015353014 0.1559 4278190335
0.031522542 0.015165902 0.154 4278190335
0.03192516 0.015185598 0.1542 4278190335
0.032286841 0.015185598 0.1542 4278190335
0.032712039 0.015215141 0.15449999 4278190335
0.033074424 0.015215141 0.15449999 4278190335
0.033458449 0.01522499 0.15459999 4278190335
0.033842947 0.015234837 0.1547 4278190335
0.034227911 0.015244685 0.1548 4278190335
0.034613345 0.015254534 0.1549 4278190335
0.034954086 0.015244685 0.1548 4278190335
0.035317175 0.015244685 0.1548 4278190335
0.035680264 0.015244685 0.1548 4278190335
0.036020067 0.015234837 0.1547 4278190335
0.036335886 0.015215141 0.15449999 4278190335
0.036698271 0.015215141 0.15449999 4278190335
0.03698869 0.015185598 0.1542 4278190335
0.037374593 0.015195445 0.15429999 4278190335
0.037712052 0.015185598 0.1542 4278190335
0.038049042 0.01517575 0.1541 4278190335
0.038360637 0.015156054 0.1539 4278190335
0.038696453 0.015146205 0.1538 4278190335
0.039031804 0.015136357 0.15369999 4278190335
0.039341051 0.015116661 0.15349999 4278190335
0.039649364 0.015096966 0.1533 4278190335
0.039982837 0.015087118 0.1532 4278190335
0.040289506 0.015067422 0.153 4278190335
0.040595233 0.015047725 0.15279999 4278190335
0.04087323 0.015018182 0.1525 4278190335
0.041230921 0.015018182 0.1525 4278190335
0.041588616 0.015018182 0.1525 4278190335
0.041946311 0.015018182 0.1525 4278190335
0.042304002 0.015018182 0.1525 4278190335
0.04268967 0.015028029 0.15259999 4278190335
0.043075807 0.015037877 0.15269999 4278190335
0.043433968 0.015037877 0.15269999 4278190335
0.043820806 0.015047725 0.15279999 4278190335
0.044208117 0.015057573 0.1529 4278190335
0.044566751 0.015057573 0.1529 4278190335
0.044954762 0.015067422 0.153 4278190335
0.045343246 0.01507727 0.1531 4278190335
0.0457322 0.015087118 0.1532 4278190335
0.046121623 0.015096966 0.1533 4278190335
0.046450872 0.015087118 0.1532 4278190335
0.046871312 0.015106813 0.15339999 4278190335
0.047292698 0.015126509 0.15359999 4278190335
0.047652971 0.015126509 0.15359999 4278190335
0.048044503 0.015136357 0.15369999 4278190335
0.048436508 0.015146205 0.1538 4278190335
0.048733793 0.015126509 0.15359999 4278190335
0.049094066 0.015126509 0.15359999 4278190335
0.049422141 0.015116661 0.15349999 4278190335
0.04968489 0.015087118 0.1532 4278190335
0.05001156 0.01507727 0.1531 4278190335
0.05030486 0.015057573 0.1529 4278190335
0.050564084 0.015028029 0.15259999 4278190335
0.050888646 0.015018182 0.1525 4278190335
0.05117913 0.014998486 0.1523 4278190335
0.051468678 0.01497879 0.1521 4278190335
0.051757284 0.014959093 0.15189999 4278190335
0.052044954 0.014939397 0.15169999 4278190335
0.052366234 0.014929551 0.1516 4278190335
0.052687034 0.014919702 0.1515 4278190335
0.053007372 0.014909854 0.1514 4278190335
0.053327236 0.014900006 0.1513 4278190335
0.053646635 0.014890158 0.1512 4278190335
0.053929847 0.014870461 0.15099999 4278190335
0.054248072 0.014860613 0.15089999 4278190335
0.054493465 0.014831071 0.1506 4278190335
0.054737445 0.014801526 0.1503 4278190335
0.054980017 0.014771981 0.14999999 4278190335
0.055184297 0.01473259 0.1496 4278190335
0.055423819 0.014703046 0.14929999 4278190335
0.055624582 0.014663654 0.1489 4278190335
0.05574828 0.014604566 0.14829999 4278190335
0.055793513 0.014525782 0.14749999 4278190335
0.055758871 0.014427301 0.14649999 4278190335
0.055300411 0.013964447 0.1418 4278190335
0.055358369 0.013895511 0.14109999 4278190335
0.055531453 0.013856119 0.1407 4278190335
0.055782065 0.013836423 0.14049999 4278190335
0.056071673 0.013826575 0.14039999 4278190335
0.056400985 0.013826575 0.14039999 4278190335
0.056730296 0.013826575 0.14039999 4278190335
0.056978326 0.013806879 0.14019999 4278190335
0.057348046 0.013816726 0.14029999 4278190335
0.057636011 0.013806879 0.14019999 4278190335
0.057964854 0.013806879 0.14019999 4278190335
0.058293696 0.013806879 0.14019999 4278190335
0.058622543 0.013806879 0.14019999 4278190335
0.059035484 0.013826575 0.14039999 4278190335
0.059407078 0.013836423 0.14049999 4278190335
0.059736624 0.013836423 0.14049999 4278190335
0.060151678 0.013856119 0.1407 4278190335
0.060481694 0.013856119 0.1407 4278190335
0.06081171 0.013856119 0.1407 4278190335
0.06109827 0.013846271 0.1406 4278190335
0.061340671 0.013826575 0.14039999 4278190335
0.061582133 0.013806879 0.14019999 4278190335
0.061778504 0.013777335 0.1399 4278190335
0.061929066 0.013737943 0.13949999 4278190335
0.06212239 0.0137084 0.1392 4278190335
0.062359162 0.013688703 0.139 4278190335
0.062594995 0.013669007 0.1388 4278190335
0.062920555 0.013669007 0.1388 4278190335
0.063246116 0.013669007 0.1388 4278190335
0.063571669 0.013669007 0.1388 4278190335
0.06389723 0.013669007 0.1388 4278190335
0.06422279 0.013669007 0.1388 4278190335
0.064548351 0.013669007 0.1388 4278190335
0.064827174 0.013659159 0.13869999 4278190335
0.065199472 0.013669007 0.1388 4278190335
0.065525025 0.013669007 0.1388 4278190335
0.065850586 0.013669007 0.1388 4278190335
0.066176146 0.013669007 0.1388 4278190335
0.066453792 0.013659159 0.13869999 4278190335
0.066730969 0.013649311 0.13859999 4278190335
0.067007683 0.013639463 0.13849999 4278190335
0.067332536 0.013639463 0.13849999 4278190335
0.067657396 0.013639463 0.13849999 4278190335
0.067982249 0.013639463 0.13849999 4278190335
0.068307109 0.013639463 0.13849999 4278190335
0.068532862 0.013619768 0.1383 4278190335
0.068757668 0.013600072 0.1381 4278190335
0.069031566 0.013590223 0.138 4278190335
0.069304988 0.013580375 0.13789999 4278190335
0.069527447 0.013560679 0.13769999 4278190335
0.069799706 0.013550831 0.13759999 4278190335
0.070020527 0.013531136 0.1374 4278190335
0.070189223 0.013501591 0.1371 4278190335
0.070459358 0.013491743 0.13699999 4278190335
0.07067737 0.013472047 0.13679999 4278190335
0.070946336 0.013462199 0.13669999 4278190335
0.071266972 0.013462199 0.13669999 4278190335
0.0715876 0.013462199 0.13669999 4278190335
0.071855642 0.013452352 0.1366 4278190335
0.072176039 0.013452352 0.1366 4278190335
0.072549507 0.013462199 0.13669999 4278190335
0.072816841 0.013452352 0.1366 4278190335
0.073137239 0.013452352 0.1366 4278190335
0.073511407 0.013462199 0.13669999 4278190335
0.073832043 0.013462199 0.13669999 4278190335
-0.011725204 0.014942325 0.14819999 4278190335
-0.011377596 0.014942325 0.14819999 4278190335
-0.011000218 0.014901995 0.1478 4278190335
-0.010653549 0.014901995 0.1478 4278190335
-0.0099265138 0.014851581 0.14729999 4278190335
-0.0095615052 0.014821335 0.147 4278190335
-0.0092104422 0.014811252 0.1469 4278190335
-0.0088598477 0.01480117 0.1468 4278190335
-0.0085039223 0.014781004 0.14659999 4278190335
-0.0081545012 0.014770921 0.14649999 4278190335
-0.0078055491 0.014760839 0.14639999 4278190335
-0.0074621635 0.014760839 0.14639999 4278190335
-0.0071139154 0.014750757 0.1463 4278190335
-0.006770764 0.014750757 0.1463 4278190335
-0.0064276136 0.014750757 0.1463 4278190335
-0.0060844622 0.014750757 0.1463 4278190335
-0.0057413108 0.014750757 0.1463 4278190335
-0.0053981598 0.014750757 0.1463 4278190335
-0.0050584632 0.014760839 0.14639999 4278190335
-0.0047182981 0.014770921 0.14649999 4278190335
-0.0043746778 0.014770921 0.14649999 4278190335
-0.0040365611 0.014791086 0.14669999 4278190335
-0.0036949886 0.01480117 0.1468 4278190335
-0.0033506646 0.01480117 0.1468 4278190335
-0.0030083884 0.014811252 0.1469 4278190335
-0.0026638301 0.014811252 0.1469 4278190335
-0.0023208505 0.014821335 0.147 4278190335
-0.0019760574 0.014821335 0.147 4278190335
-0.001632374 0.014831417 0.1471 4278190335
-0.0012873464 0.014831417 0.1471 4278190335
-0.00094231876 0.014831417 0.1471 4278190335
-0.00059769722 0.0148415 0.1472 4278190335
-0.00025226353 0.014831417 0.1471 4278190335
9.2764079e-05 0.014831417 0.1471 4278190335
0.00043779172 0.014831417 0.1471 4278190335
0.00078281929 0.014831417 0.1471 4278190335
0.0011263135 0.014811252 0.1469 4278190335
0.0014728745 0.014831417 0.1471 4278190335
0.0018179022 0.014831417 0.1471 4278190335
0.0021658705 0.014851581 0.14729999 4278190335
0.0025250069 0.014932243 0.1481 4278190335
0.002889835 0.015022985 0.14899999 4278190335
0.0032632337 0.015133893 0.15009999 4278190335
0.0036393839 0.015234718 0.15109999 4278190335
0.0040228684 0.015345627 0.1522 4278190335
0.0044086352 0.015446452 0.1532 4278190335
0.0048053171 0.015567441 0.15439999 4278190335
0.0052042822 0.01567835 0.15549999 4278190335
0.0055940817 0.015748927 0.15619999 4278190335
0.005968086 0.015769092 0.1564 4278190335
0.0063349265 0.015769092 0.1564 4278190335
0.0067060525 0.015779177 0.1565 4278190335
0.0070731286 0.015779177 0.1565 4278190335
0.0074402043 0.015779177 0.1565 4278190335
0.0078022908 0.015769092 0.1564 4278190335
0.0081586856 0.015748927 0.15619999 4278190335
0.0085141426 0.015728764 0.156 4278190335
0.0088629676 0.015698515 0.1557 4278190335
0.0092044594 0.015658185 0.15529999 4278190335
0.0095502362 0.015627937 0.155 4278190335
0.0099010011 0.015607772 0.1548 4278190335
0.010257459 0.01559769 0.1547 4278190335
0.010613447 0.015587607 0.15459999 4278190335
0.010961867 0.015567441 0.15439999 4278190335
0.011324017 0.015567441 0.15439999 4278190335
0.011678597 0.015557359 0.15429999 4278190335
0.012048316 0.015567441 0.15439999 4278190335
0.012410467 0.015567441 0.15439999 4278190335
0.012764344 0.015557359 0.15429999 4278190335
0.013134766 0.015567441 0.15439999 4278190335
0.013488175 0.015557359 0.15429999 4278190335
0.013850091 0.015557359 0.15429999 4278190335
0.014212006 0.015557359 0.15429999 4278190335
0.014573921 0.015557359 0.15429999 4278190335
0.014935836 0.015557359 0.15429999 4278190335
0.015307667 0.015567441 0.15439999 4278190335
0.015659668 0.015557359 0.15429999 4278190335
0.016031967 0.015567441 0.15439999 4278190335
0.016404733 0.015577525 0.15449999 4278190335
0.016767118 0.015577525 0.15449999 4278190335
0.017129503 0.015577525 0.15449999 4278190335
0.017491888 0.015577525 0.15449999 4278190335
0.017854273 0.015577525 0.15449999 4278190335
0.018204866 0.015567441 0.15439999 4278190335
0.018567016 0.015567441 0.15439999 4278190335
0.018929165 0.015567441 0.15439999 4278190335
0.019291315 0.015567441 0.15439999 4278190335
0.019615281 0.015537195 0.1541 4278190335
0.019963764 0.015527112 0.154 4278190335
0.020272182 0.015486781 0.15359999 4278190335
0.020619024 0.015476699 0.15349999 4278190335
0.020938063 0.015446452 0.1532 4278190335
0.021255692 0.015416204 0.1529 4278190335
0.02155778 0.015375875 0.1525 4278190335
0.023407482 0.015416204 0.1529 4278190335
0.024739578 0.015577525 0.15449999 4278190335
0.025166953 0.015617856 0.1549 4278190335
0.025645649 0.015688432 0.1556 4278190335
0.02611091 0.015748927 0.15619999 4278190335
0.026511185 0.015769092 0.1564 4278190335
0.026929583 0.015799342 0.1567 4278190335
0.027297128 0.015799342 0.1567 4278190335
0.028454131 0.015829587 0.15699999 4278190335
0.031563479 0.015547278 0.1542 4278190335
0.03192516 0.015547278 0.1542 4278190335
0.032307774 0.015557359 0.15429999 4278190335
0.032712039 0.015577525 0.15449999 4278190335
0.033117238 0.01559769 0.1547 4278190335
0.033501733 0.015607772 0.1548 4278190335
0.033886701 0.015617856 0.1549 4278190335
0.034250021 0.015617856 0.1549 4278190335
0.034635693 0.015627937 0.155 4278190335
0.034999248 0.015627937 0.155 4278190335
0.03538562 0.015638022 0.1551 4278190335
0.035726365 0.015627937 0.155 4278190335
0.036066636 0.015617856 0.1549 4278190335
0.03642996 0.015617856 0.1549 4278190335
0.036769528 0.015607772 0.1548 4278190335
0.037084639 0.015587607 0.15459999 4278190335
0.037447259 0.015587607 0.15459999 4278190335
0.037809879 0.015587607 0.15459999 4278190335
0.038123116 0.015567441 0.15439999 4278190335
0.038460337 0.015557359 0.15429999 4278190335
0.038771935 0.015537195 0.1541 4278190335
0.03910799 0.015527112 0.154 4278190335
0.039417941 0.015506947 0.1538 4278190335
0.039778683 0.015506947 0.1538 4278190335
0.040087227 0.015486781 0.15359999 4278190335
0.040368505 0.015456535 0.1533 4278190335
0.040648371 0.015426286 0.153 4278190335
0.040900029 0.015385957 0.15259999 4278190335
0.041284993 0.015396039 0.15269999 4278190335
0.041588616 0.015375875 0.1525 4278190335
0.041946311 0.015375875 0.1525 4278190335
0.042304002 0.015375875 0.1525 4278190335
0.04268967 0.015385957 0.15259999 4278190335
0.043019392 0.015375875 0.1525 4278190335
0.043377083 0.015375875 0.1525 4278190335
0.043734774 0.015375875 0.1525 4278190335
0.044121377 0.015385957 0.15259999 4278190335
0.044479303 0.015385957 0.15259999 4278190335
0.044866614 0.015396039 0.15269999 4278190335
0.045224778 0.015396039 0.15269999 4278190335
0.045612793 0.015406121 0.15279999 4278190335
0.046001278 0.015416204 0.1529 4278190335
0.046390228 0.015426286 0.153 4278190335
0.046779651 0.01543637 0.1531 4278190335
0.047200333 0.015456535 0.1533 4278190335
0.047621947 0.015476699 0.15349999 4278190335
0.047981985 0.015476699 0.15349999 4278190335
0.04837352 0.015486781 0.15359999 4278190335
0.048765521 0.015496864 0.15369999 4278190335
0.049062103 0.015476699 0.15349999 4278190335
0.049389947 0.015466616 0.15339999 4278190335
0.049717322 0.015456535 0.1533 4278190335
0.05001156 0.01543637 0.1531 4278190335
0.05030486 0.015416204 0.1529 4278190335
0.050597221 0.015396039 0.15269999 4278190335
0.050888646 0.015375875 0.1525 4278190335
0.051145528 0.015345627 0.1522 4278190335
0.051434837 0.015325462 0.152 4278190335
0.051723212 0.015305296 0.15179999 4278190335
0.052044954 0.015295213 0.15169999 4278190335
0.052366234 0.015285132 0.1516 4278190335
0.052687034 0.015275049 0.1515 4278190335
0.053007372 0.015264967 0.1514 4278190335
0.053327236 0.015254884 0.1513 4278190335
0.053646635 0.015244802 0.1512 4278190335
0.053965565 0.015234718 0.15109999 4278190335
0.054248072 0.015214553 0.15089999 4278190335
0.054493465 0.015184307 0.1506 4278190335
0.054737445 0.015154058 0.1503 4278190335
0.054980017 0.01512381 0.14999999 4278190335
0.055184297 0.015083481 0.1496 4278190335
0.055386696 0.01504315 0.14919999 4278190335
0.055624582 0.015012903 0.1489 4278190335
0.055710688 0.014942325 0.14819999 4278190335
0.055084102 0.01432729 0.14209999 4278190335
0.055027414 0.014226464 0.14109999 4278190335
0.055122968 0.014165969 0.14049999 4278190335
0.055373579 0.014145804 0.14029999 4278190335
0.055702657 0.014145804 0.14029999 4278190335
0.055991799 0.014135721 0.14019999 4278190335
0.056320641 0.014135721 0.14019999 4278190335
0.056649484 0.014135721 0.14019999 4278190335
0.056937691 0.01412564 0.1401 4278190335
0.057266302 0.01412564 0.1401 4278190335
0.057553794 0.014115557 0.14 4278190335
0.057923514 0.01412564 0.1401 4278190335
0.058210544 0.014115557 0.14 4278190335
0.058580734 0.01412564 0.1401 4278190335
0.058909342 0.01412564 0.1401 4278190335
0.059280228 0.014135721 0.14019999 4278190335
0.059651591 0.014145804 0.14029999 4278190335
0.059980668 0.014145804 0.14029999 4278190335
0.060266759 0.014135721 0.14019999 4278190335
0.060595602 0.014135721 0.14019999 4278190335
0.060880996 0.01412564 0.1401 4278190335
0.061165914 0.014115557 0.14 4278190335
0.061406441 0.014095391 0.1398 4278190335
0.061646026 0.014075226 0.13959999 4278190335
0.061840285 0.01404498 0.1393 4278190335
0.06212239 0.014034897 0.1392 4278190335
0.062359162 0.014014731 0.139 4278190335
0.062594995 0.013994566 0.1388 4278190335
0.062920555 0.013994566 0.1388 4278190335
0.063246116 0.013994566 0.1388 4278190335
0.063571669 0.013994566 0.1388 4278190335
0.06389723 0.013994566 0.1388 4278190335
0.064176522 0.013984484 0.13869999 4278190335
0.064501844 0.013984484 0.13869999 4278190335
0.064873911 0.013994566 0.1388 4278190335
0.065199472 0.013994566 0.1388 4278190335
0.065525025 0.013994566 0.1388 4278190335
0.065850586 0.013994566 0.1388 4278190335
0.066176146 0.013994566 0.1388 4278190335
0.066501707 0.013994566 0.1388 4278190335
0.066779122 0.013984484 0.13869999 4278190335
0.06705606 0.0139744 0.13859999 4278190335
0.067332536 0.013964318 0.13849999 4278190335
0.067657396 0.013964318 0.13849999 4278190335
0.067982249 0.013964318 0.13849999 4278190335
0.068257794 0.013954236 0.1384 4278190335
0.068483308 0.013934071 0.1382 4278190335
0.06880746 0.013934071 0.1382 4278190335
0.06908159 0.013923989 0.1381 4278190335
0.069355249 0.013913906 0.138 4278190335
0.06957794 0.01389374 0.13779999 4278190335
0.06985043 0.013883658 0.13769999 4278190335
0.070071489 0.013863494 0.1375 4278190335
0.070342809 0.013853411 0.1374 4278190335
0.07051079 0.013823163 0.1371 4278190335
0.070832364 0.013823163 0.1371 4278190335
0.071102031 0.01381308 0.13699999 4278190335
0.071371242 0.013802998 0.13689999 4278190335
0.07163997 0.013792914 0.13679999 4278190335
0.071908236 0.013782832 0.13669999 4278190335
0.072228871 0.013782832 0.13669999 4278190335
0.072549507 0.013782832 0.13669999 4278190335
0.072870135 0.013782832 0.13669999 4278190335
0.073190778 0.013782832 0.13669999 4278190335
0.073511407 0.013782832 0.13669999 4278190335
0.073886052 0.013792914 0.13679999 4278190335
0.074152671 0.013782832 0.13669999 4278190335
0.12155358 0.021929527 0.2175 4278190335
-0.011369919 0.015279616 0.1481 4278190335
-0.011000218 0.015248665 0.1478 4278190335
-0.010653549 0.015248665 0.1478 4278190335
-0.010292931 0.01522803 0.1476 4278190335
-0.0095615052 0.015166128 0.147 4278190335
-0.0092104422 0.015155811 0.1469 4278190335
-0.0088598477 0.015145494 0.1468 4278190335
-0.0085039223 0.015124859 0.14659999 4278190335
-0.0081545012 0.015114542 0.14649999 4278190335
-0.0078055491 0.015104224 0.14639999 4278190335
-0.0074621635 0.015104224 0.14639999 4278190335
-0.0071139154 0.015093909 0.1463 4278190335
-0.006770764 0.015093909 0.1463 4278190335
-0.0064320061 0.015104224 0.14639999 4278190335
-0.0060844622 0.015093909 0.1463 4278190335
-0.0057452344 0.015104224 0.14639999 4278190335
-0.0054018493 0.015104224 0.14639999 4278190335
-0.0050584632 0.015104224 0.14639999 4278190335
-0.0047182981 0.015114542 0.14649999 4278190335
-0.0043746778 0.015114542 0.14649999 4278190335
-0.0040338095 0.015124859 0.14659999 4278190335
-0.0036924714 0.015135176 0.14669999 4278190335
-0.0033506646 0.015145494 0.1468 4278190335
-0.0030083884 0.015155811 0.1469 4278190335
-0.0026638301 0.015155811 0.1469 4278190335
-0.0023192717 0.015155811 0.1469 4278190335
-0.0019747131 0.015155811 0.1469 4278190335
-0.0016312643 0.015166128 0.147 4278190335
-0.0012864713 0.015166128 0.147 4278190335
-0.00094167812 0.015166128 0.147 4278190335
-0.0005968851 0.015166128 0.147 4278190335
-0.00025209205 0.015166128 0.147 4278190335
9.2701019e-05 0.015166128 0.147 4278190335
0.00043749408 0.015166128 0.147 4278190335
0.0007822871 0.015166128 0.147 4278190335
0.0011263135 0.015155811 0.1469 4278190335
0.001470872 0.015155811 0.1469 4278190335
0.0018179022 0.015176445 0.1471 4278190335
0.0021629299 0.015176445 0.1471 4278190335
0.0025198921 0.015248665 0.1478 4278190335
0.0028820771 0.015331201 0.1486 4278190335
0.0032545377 0.015444689 0.1497 4278190335
0.003627341 0.015537543 0.1506 4278190335
0.0040096524 0.01565103 0.15169999 4278190335
0.0043971241 0.01576452 0.15279999 4278190335
0.0047928686 0.015888324 0.154 4278190335
0.0051908949 0.016001813 0.1551 4278190335
0.0055869194 0.016094666 0.156 4278190335
0.0059604538 0.0161153 0.15619999 4278190335
0.0063349265 0.016135935 0.1564 4278190335
0.0066974824 0.016125618 0.15629999 4278190335
0.0070686089 0.016135935 0.1564 4278190335
0.0074306959 0.016125618 0.15629999 4278190335
0.0077923131 0.0161153 0.15619999 4278190335
0.0081430161 0.016084349 0.1559 4278190335
0.0084923105 0.016053397 0.1556 4278190335
0.0088345055 0.016012128 0.15519999 4278190335
0.0091688978 0.015960544 0.1547 4278190335
0.0095132673 0.015929593 0.15439999 4278190335
0.009862625 0.015908958 0.1542 4278190335
0.010211045 0.015888324 0.154 4278190335
0.010565392 0.015878007 0.1539 4278190335
0.01091217 0.015857372 0.15369999 4278190335
0.011280012 0.01586769 0.1538 4278190335
0.011640754 0.01586769 0.1538 4278190335
0.0120093 0.015878007 0.1539 4278190335
0.012386354 0.015898641 0.1541 4278190335
0.0127478 0.015898641 0.1541 4278190335
0.013109247 0.015898641 0.1541 4278190335
0.013479435 0.015908958 0.1542 4278190335
0.013850091 0.015919276 0.15429999 4278190335
0.014221217 0.015929593 0.15439999 4278190335
0.014583366 0.015929593 0.15439999 4278190335
0.014955197 0.01593991 0.15449999 4278190335
0.015317581 0.01593991 0.15449999 4278190335
0.015679967 0.01593991 0.15449999 4278190335
0.01604235 0.01593991 0.15449999 4278190335
0.016415352 0.015950227 0.15459999 4278190335
0.016777972 0.015950227 0.15459999 4278190335
0.017140592 0.015950227 0.15459999 4278190335
0.017503209 0.015950227 0.15459999 4278190335
0.017865829 0.015950227 0.15459999 4278190335
0.018228449 0.015950227 0.15459999 4278190335
0.018579042 0.01593991 0.15449999 4278190335
0.018941427 0.01593991 0.15449999 4278190335
0.01930381 0.01593991 0.15449999 4278190335
0.019653466 0.015929593 0.15439999 4278190335
0.01998969 0.015908958 0.1542 4278190335
0.020311777 0.015878007 0.1539 4278190335
0.020645889 0.015857372 0.15369999 4278190335
0.02099273 0.015847055 0.15359999 4278190335
0.021297397 0.015805788 0.1532 4278190335
0.021600187 0.01576452 0.15279999 4278190335
0.023453409 0.015805788 0.1532 4278190335
0.023921549 0.015878007 0.1539 4278190335
0.024835657 0.016001813 0.1551 4278190335
0.02529693 0.016063714 0.1557 4278190335
0.025793985 0.016146252 0.1565 4278190335
0.026261358 0.016208153 0.15709999 4278190335
0.026646791 0.01621847 0.15719999 4278190335
0.027084252 0.016259739 0.1576 4278190335
0.027453909 0.016259739 0.1576 4278190335
0.027858868 0.016280374 0.15779999 4278190335
0.031522542 0.015888324 0.154 4278190335
0.03188375 0.015888324 0.154 4278190335
0.032307774 0.015919276 0.15429999 4278190335
0.032712039 0.01593991 0.15449999 4278190335
0.033095829 0.015950227 0.15459999 4278190335
0.033480093 0.015960544 0.1547 4278190335
0.033886701 0.015981179 0.1549 4278190335
0.034250021 0.015981179 0.1549 4278190335
0.034635693 0.015991496 0.155 4278190335
0.03502183 0.016001813 0.1551 4278190335
0.035408434 0.016012128 0.15519999 4278190335
0.035749413 0.016001813 0.1551 4278190335
0.036113206 0.016001813 0.1551 4278190335
0.03642996 0.015981179 0.1549 4278190335
0.036817037 0.015991496 0.155 4278190335
0.037132617 0.015970862 0.1548 4278190335
0.037495703 0.015970862 0.1548 4278190335
0.037883248 0.015981179 0.1549 4278190335
0.03819719 0.015960544 0.1547 4278190335
0.038535118 0.015950227 0.15459999 4278190335
0.038847413 0.015929593 0.15439999 4278190335
0.039184168 0.015919276 0.15429999 4278190335
0.039520457 0.015908958 0.1542 4278190335
0.039856277 0.015898641 0.1541 4278190335
0.040165525 0.015878007 0.1539 4278190335
0.040447503 0.015847055 0.15359999 4278190335
0.040701509 0.015805788 0.1532 4278190335
0.040953632 0.01576452 0.15279999 4278190335
0.041312031 0.01576452 0.15279999 4278190335
0.041588616 0.015733568 0.1525 4278190335
0.041946311 0.015733568 0.1525 4278190335
0.042304002 0.015733568 0.1525 4278190335
0.044719707 0.015702616 0.1522 4278190335
0.045106314 0.015712934 0.1523 4278190335
0.045911018 0.015743885 0.15259999 4278190335
0.046299268 0.015754202 0.15269999 4278190335
0.046687983 0.01576452 0.15279999 4278190335
0.047107961 0.015785154 0.153 4278190335
0.047559902 0.015816106 0.1533 4278190335
0.047950726 0.015826421 0.15339999 4278190335
0.04837352 0.015847055 0.15359999 4278190335
0.048733793 0.015847055 0.15359999 4278190335
0.049062103 0.015836738 0.15349999 4278190335
0.049389947 0.015826421 0.15339999 4278190335
0.049717322 0.015816106 0.1533 4278190335
0.05001156 0.015795471 0.1531 4278190335
0.05030486 0.015774837 0.1529 4278190335
0.050597221 0.015754202 0.15269999 4278190335
0.050888646 0.015733568 0.1525 4278190335
0.05117913 0.015712934 0.1523 4278190335
0.051468678 0.015692299 0.1521 4278190335
0.051757284 0.015671665 0.15189999 4278190335
0.052044954 0.01565103 0.15169999 4278190335
0.052366234 0.015640715 0.1516 4278190335
0.052687034 0.015630398 0.1515 4278190335
0.053007372 0.01562008 0.1514 4278190335
0.053327236 0.015609763 0.1513 4278190335
0.053646635 0.015599445 0.1512 4278190335
0.053965565 0.015589128 0.15109999 4278190335
0.054248072 0.015568494 0.15089999 4278190335
0.054493465 0.015537543 0.1506 4278190335
0.054737445 0.015506592 0.1503 4278190335
0.05494336 0.015465323 0.14989999 4278190335
0.055221185 0.015444689 0.1497 4278190335
0.055460941 0.015413738 0.1494 4278190335
0.055661935 0.015372469 0.14899999 4278190335
0.0556731 0.015279616 0.1481 4278190335
0.055566557 0.015155811 0.1469 4278190335
0.054812752 0.01458837 0.14139999 4278190335
0.054832421 0.014505833 0.1406 4278190335
0.055044502 0.014474882 0.14029999 4278190335
0.055294648 0.014454248 0.1401 4278190335
0.055623256 0.014454248 0.1401 4278190335
0.055911928 0.014443931 0.14 4278190335
0.056280475 0.014454248 0.1401 4278190335
0.056609083 0.014454248 0.1401 4278190335
0.056937691 0.014454248 0.1401 4278190335
0.057266302 0.014454248 0.1401 4278190335
0.057594907 0.014454248 0.1401 4278190335
0.057923514 0.014454248 0.1401 4278190335
0.058252126 0.014454248 0.1401 4278190335
0.058580734 0.014454248 0.1401 4278190335
0.058909342 0.014454248 0.1401 4278190335
0.059237953 0.014454248 0.1401 4278190335
0.059524044 0.014443931 0.14 4278190335
0.059895169 0.014454248 0.1401 4278190335
0.060180791 0.014443931 0.14 4278190335
0.060509168 0.014443931 0.14 4278190335
0.060794085 0.014433614 0.1399 4278190335
0.061078534 0.014423297 0.1398 4278190335
0.061318588 0.014402662 0.13959999 4278190335
0.061601866 0.014392345 0.13949999 4278190335
0.06179589 0.014361395 0.1392 4278190335
0.062077761 0.014351077 0.1391 4278190335
0.062359162 0.01434076 0.139 4278190335
0.062640093 0.014330443 0.1389 4278190335
0.062920555 0.014320126 0.1388 4278190335
0.063246116 0.014320126 0.1388 4278190335
0.063571669 0.014320126 0.1388 4278190335
0.06389723 0.014320126 0.1388 4278190335
0.06422279 0.014320126 0.1388 4278190335
0.064548351 0.014320126 0.1388 4278190335
0.064920649 0.014330443 0.1389 4278190335
0.065246448 0.014330443 0.1389 4278190335
0.065572239 0.014330443 0.1389 4278190335
0.065945476 0.01434076 0.139 4278190335
0.066223823 0.014330443 0.1389 4278190335
0.066501707 0.014320126 0.1388 4278190335
0.066827267 0.014320126 0.1388 4278190335
0.067152828 0.014320126 0.1388 4278190335
0.067429774 0.014309809 0.13869999 4278190335
0.067706242 0.014299491 0.13859999 4278190335
0.067982249 0.014289174 0.13849999 4278190335
0.068307109 0.014289174 0.13849999 4278190335
0.068582416 0.014278858 0.1384 4278190335
0.068857245 0.014268541 0.1383 4278190335
0.069181636 0.014268541 0.1383 4278190335
0.069455765 0.014258224 0.1382 4278190335
0.069729418 0.014247906 0.1381 4278190335
0.069951884 0.014227272 0.13789999 4278190335
0.070173405 0.014206638 0.13769999 4278190335
0.070445195 0.01419632 0.13759999 4278190335
0.070665084 0.014175687 0.1374 4278190335
0.070832364 0.014144735 0.1371 4278190335
0.071153931 0.014144735 0.1371 4278190335
0.071475506 0.014144735 0.1371 4278190335
0.07174471 0.014134418 0.13699999 4278190335
0.072013445 0.014124101 0.13689999 4278190335
0.072281711 0.014113784 0.13679999 4278190335
0.072549507 0.014103467 0.13669999 4278190335
0.072923444 0.014113784 0.13679999 4278190335
0.073244318 0.014113784 0.13679999 4278190335
0.073565185 0.014113784 0.13679999 4278190335
0.073940068 0.014124101 0.13689999 4278190335
0.074261166 0.014124101 0.13689999 4278190335
0.1205982 0.022357142 0.21669999 4278190335
0.12121826 0.022377776 0.21689999 4278190335
-0.011369919 0.015626989 0.1481 4278190335
-0.011007661 0.015605886 0.1479 4278190335
-0.01064634 0.015584783 0.1477 4278190335
-0.010292931 0.015574231 0.1476 4278190335
-0.0099332528 0.015553127 0.14739999 4278190335
-0.0095615052 0.015510921 0.147 4278190335
-0.0092041725 0.015489818 0.1468 4278190335
-0.0088598477 0.015489818 0.1468 4278190335
-0.0085097235 0.015479266 0.14669999 4278190335
-0.0081600668 0.015468714 0.14659999 4278190335
-0.0078108809 0.015458162 0.14649999 4278190335
-0.0074621635 0.01544761 0.14639999 4278190335
-0.0071187774 0.01544761 0.14639999 4278190335
-0.0067753918 0.01544761 0.14639999 4278190335
-0.0064320061 0.01544761 0.14639999 4278190335
-0.0060844622 0.01543706 0.1463 4278190335
-0.0057452344 0.01544761 0.14639999 4278190335
-0.0054018493 0.01544761 0.14639999 4278190335
-0.0050619184 0.015458162 0.14649999 4278190335
-0.0047182981 0.015458162 0.14649999 4278190335
-0.0043746778 0.015458162 0.14649999 4278190335
-0.0040338095 0.015468714 0.14659999 4278190335
-0.0036924714 0.015479266 0.14669999 4278190335
-0.0033506646 0.015489818 0.1468 4278190335
-0.0030063405 0.015489818 0.1468 4278190335
-0.0026638301 0.015500369 0.1469 4278190335
-0.0023192717 0.015500369 0.1469 4278190335
-0.0019747131 0.015500369 0.1469 4278190335
-0.0016301546 0.015500369 0.1469 4278190335
-0.0012855961 0.015500369 0.1469 4278190335
-0.00094103755 0.015500369 0.1469 4278190335
-0.00059647905 0.015500369 0.1469 4278190335
-0.00025192054 0.015500369 0.1469 4278190335
9.2637958e-05 0.015500369 0.1469 4278190335
0.00043719646 0.015500369 0.1469 4278190335
0.00078175496 0.015500369 0.1469 4278190335
0.0011263135 0.015500369 0.1469 4278190335
0.001470872 0.015500369 0.1469 4278190335
0.0018154305 0.015500369 0.1469 4278190335
0.0021614595 0.015510921 0.147 4278190335
0.002518187 0.015584783 0.1477 4278190335
0.0028781982 0.015658643 0.14839999 4278190335
0.0032480157 0.01576416 0.1494 4278190335
0.0036177065 0.015848573 0.15019999 4278190335
0.0039964365 0.01595409 0.1512 4278190335
0.004382736 0.016070159 0.1523 4278190335
0.0047710827 0.016175676 0.1533 4278190335
0.0051708138 0.016302293 0.15449999 4278190335
0.005565431 0.016397258 0.15539999 4278190335
0.0059413747 0.016428914 0.1557 4278190335
0.0063146744 0.016450018 0.1559 4278190335
0.0066803428 0.016450018 0.1559 4278190335
0.0070460113 0.016450018 0.1559 4278190335
0.0074164341 0.01646057 0.156 4278190335
0.0077823363 0.01646057 0.156 4278190335
0.0081273457 0.016418362 0.1556 4278190335
0.0084759369 0.016386706 0.15529999 4278190335
0.0088060442 0.016323397 0.1547 4278190335
0.009139264 0.016270639 0.1542 4278190335
0.0094824601 0.016238984 0.1539 4278190335
0.0098306453 0.016217882 0.15369999 4278190335
0.010164632 0.016175676 0.1533 4278190335
0.010524201 0.016175676 0.1533 4278190335
0.010876672 0.016165124 0.1532 4278190335
0.011250675 0.016186226 0.15339999 4278190335
0.011625616 0.01620733 0.15359999 4278190335
0.011993693 0.016217882 0.15369999 4278190335
0.012370278 0.016238984 0.1539 4278190335
0.012739528 0.016249536 0.154 4278190335
0.013117754 0.016270639 0.1542 4278190335
0.013488175 0.016281191 0.15429999 4278190335
0.013859067 0.016291741 0.15439999 4278190335
0.014221217 0.016291741 0.15439999 4278190335
0.014592811 0.016302293 0.15449999 4278190335
0.014964876 0.016312845 0.15459999 4278190335
0.01533741 0.016323397 0.1547 4278190335
0.015700264 0.016323397 0.1547 4278190335
0.016063118 0.016323397 0.1547 4278190335
0.016425971 0.016323397 0.1547 4278190335
0.016799677 0.016333949 0.1548 4278190335
0.017162764 0.016333949 0.1548 4278190335
0.017514532 0.016323397 0.1547 4278190335
0.017877385 0.016323397 0.1547 4278190335
0.018240239 0.016323397 0.1547 4278190335
0.018603094 0.016323397 0.1547 4278190335
0.018965947 0.016323397 0.1547 4278190335
0.019328799 0.016323397 0.1547 4278190335
0.019666195 0.016302293 0.15449999 4278190335
0.020002652 0.016281191 0.15429999 4278190335
0.020324975 0.016249536 0.154 4278190335
0.020672755 0.016238984 0.1539 4278190335
0.021020064 0.016228434 0.1538 4278190335
0.021325199 0.016186226 0.15339999 4278190335
0.021642597 0.016154572 0.1531 4278190335
0.023637116 0.016291741 0.15439999 4278190335
0.024216877 0.016439466 0.1558 4278190335
0.024645422 0.016481671 0.15619999 4278190335
0.026008246 0.016650498 0.15779999 4278190335
0.026478671 0.016713809 0.1584 4278190335
0.026884105 0.016734913 0.1586 4278190335
0.027290476 0.016756015 0.15879999 4278190335
0.027645526 0.016745463 0.15869999 4278190335
0.031522542 0.016249536 0.154 4278190335
0.031904455 0.016260087 0.1541 4278190335
0.032328714 0.016291741 0.15439999 4278190335
0.032712039 0.016302293 0.15449999 4278190335
0.033117238 0.016323397 0.1547 4278190335
0.033501733 0.016333949 0.1548 4278190335
0.033886701 0.016344501 0.1549 4278190335
0.034272134 0.016355053 0.155 4278190335
0.034680381 0.016376154 0.15519999 4278190335
0.035044406 0.016376154 0.15519999 4278190335
0.035454065 0.016397258 0.15539999 4278190335
0.03579551 0.016386706 0.15529999 4278190335
0.036159769 0.016386706 0.15529999 4278190335
0.036524031 0.016386706 0.15529999 4278190335
0.036864538 0.016376154 0.15519999 4278190335
0.037228562 0.016376154 0.15519999 4278190335
0.03759259 0.016376154 0.15519999 4278190335
0.037932165 0.016365604 0.1551 4278190335
0.038295954 0.016365604 0.1551 4278190335
0.038634822 0.016355053 0.155 4278190335
0.03897322 0.016344501 0.1549 4278190335
0.039311145 0.016333949 0.1548 4278190335
0.039597344 0.016302293 0.15449999 4278190335
0.039933864 0.016291741 0.15439999 4278190335
0.040217724 0.016260087 0.1541 4278190335
0.040526502 0.016238984 0.1539 4278190335
0.040781207 0.016196778 0.15349999 4278190335
0.041034039 0.016154572 0.1531 4278190335
0.041312031 0.016122917 0.15279999 4278190335
0.041643154 0.016112365 0.15269999 4278190335
0.041946311 0.016091263 0.1525 4278190335
0.044987846 0.016027952 0.15189999 4278190335
0.045403834 0.016049055 0.1521 4278190335
0.046238631 0.016091263 0.1525 4278190335
0.046657428 0.016112365 0.15269999 4278190335
0.047077172 0.016133469 0.1529 4278190335
0.047528878 0.016165124 0.1532 4278190335
0.047950726 0.016186226 0.15339999 4278190335
0.04837352 0.01620733 0.15359999 4278190335
0.048733793 0.01620733 0.15359999 4278190335
0.049062103 0.016196778 0.15349999 4278190335
0.049389947 0.016186226 0.15339999 4278190335
0.049717322 0.016175676 0.1533 4278190335
0.050044227 0.016165124 0.1532 4278190335
0.050337762 0.01614402 0.153 4278190335
0.050597221 0.016112365 0.15269999 4278190335
0.050888646 0.016091263 0.1525 4278190335
0.051212735 0.016080711 0.1524 4278190335
0.051468678 0.016049055 0.1521 4278190335
0.051757284 0.016027952 0.15189999 4278190335
0.052044954 0.016006848 0.15169999 4278190335
0.052366234 0.015996298 0.1516 4278190335
0.052687034 0.015985746 0.1515 4278190335
0.053007372 0.015975194 0.1514 4278190335
0.053327236 0.015964642 0.1513 4278190335
0.053646635 0.01595409 0.1512 4278190335
0.053929847 0.015932987 0.15099999 4278190335
0.054248072 0.015922435 0.15089999 4278190335
0.054493465 0.015890781 0.1506 4278190335
0.054737445 0.015859125 0.1503 4278190335
0.05494336 0.015816918 0.14989999 4278190335
0.055221185 0.015795816 0.1497 4278190335
0.055423819 0.015753608 0.14929999 4278190335
0.055624582 0.015711403 0.1489 4278190335
0.055560324 0.015595335 0.1478 4278190335
0.055377424 0.01544761 0.14639999 4278190335
0.055187963 0.015299887 0.145 4278190335
0.054953638 0.015141614 0.1435 4278190335
0.054789331 0.015004441 0.14219999 4278190335
0.054735225 0.014898925 0.14119999 4278190335
0.054754421 0.014814512 0.14039999 4278190335
0.055005267 0.014793408 0.14019999 4278190335
0.055255178 0.014772306 0.14 4278190335
0.055662952 0.014793408 0.14019999 4278190335
0.055991799 0.014793408 0.14019999 4278190335
0.056320641 0.014793408 0.14019999 4278190335
0.056649484 0.014793408 0.14019999 4278190335
0.056978326 0.014793408 0.14019999 4278190335
0.057307173 0.014793408 0.14019999 4278190335
0.057636011 0.014793408 0.14019999 4278190335
0.057923514 0.014782858 0.1401 4278190335
0.058252126 0.014782858 0.1401 4278190335
0.058580734 0.014782858 0.1401 4278190335
0.058909342 0.014782858 0.1401 4278190335
0.059195668 0.014772306 0.14 4278190335
0.059566561 0.014782858 0.1401 4278190335
0.059852418 0.014772306 0.14 4278190335
0.060180791 0.014772306 0.14 4278190335
0.060465943 0.014761754 0.1399 4278190335
0.06075063 0.014751202 0.1398 4278190335
0.061034843 0.014740651 0.1397 4278190335
0.061318588 0.014730099 0.13959999 4278190335
0.061601866 0.014719547 0.13949999 4278190335
0.061840285 0.014698445 0.1393 4278190335
0.06212239 0.014687893 0.1392 4278190335
0.062359162 0.014666789 0.139 4278190335
0.062685192 0.014666789 0.139 4278190335
0.062965885 0.014656237 0.1389 4278190335
0.063291676 0.014656237 0.1389 4278190335
0.063617475 0.014656237 0.1389 4278190335
0.063943267 0.014656237 0.1389 4278190335
0.064269066 0.014656237 0.1389 4278190335
0.064641364 0.014666789 0.139 4278190335
0.064967394 0.014666789 0.139 4278190335
0.065340392 0.014677341 0.1391 4278190335
0.065666653 0.014677341 0.1391 4278190335
0.065992922 0.014677341 0.1391 4278190335
0.066271506 0.014666789 0.139 4278190335
0.066501707 0.014645685 0.1388 4278190335
0.066827267 0.014645685 0.1388 4278190335
0.067152828 0.014645685 0.1388 4278190335
0.067381151 0.014624582 0.13859999 4278190335
0.067657396 0.01461403 0.13849999 4278190335
0.067982249 0.01461403 0.13849999 4278190335
0.068307109 0.01461403 0.13849999 4278190335
0.068582416 0.01460348 0.1384 4278190335
0.068907037 0.01460348 0.1384 4278190335
0.069231659 0.01460348 0.1384 4278190335
