# .PCD v0.7 - Point Cloud Data file format
VERSION 0.7
FIELDS x y z rgb
SIZE 4 4 4 4
TYPE F F F U
COUNT 1 1 1 1
WIDTH 1086
HEIGHT 1
VIEWPOINT 0 0 0 1 0 0 0
POINTS 1086
DATA ascii
0.054144304 0.029854266 0.134 4278190335
0.054539885 0.029898822 0.13419999 4278190335
0.054895531 0.029921101 0.13429999 4278190335
0.055210531 0.029921101 0.13429999 4278190335
0.055608228 0.029965661 0.1345 4278190335
0.056048438 0.030032501 0.1348 4278190335
0.056406431 0.03005478 0.1349 4278190335
0.056806937 0.030099336 0.13509999 4278190335
0.0571661 0.030121615 0.13519999 4278190335
0.057483215 0.030121615 0.13519999 4278190335
0.057843085 0.030143896 0.1353 4278190335
0.058203422 0.030166175 0.1354 4278190335
0.058564227 0.030188454 0.1355 4278190335
0.058882046 0.030188454 0.1355 4278190335
0.05928725 0.030233014 0.1357 4278190335
0.059649464 0.030255293 0.1358 4278190335
0.059967987 0.030255293 0.1358 4278190335
0.060330898 0.030277571 0.13589999 4278190335
0.060694285 0.03029985 0.13599999 4278190335
0.061058141 0.030322129 0.13609999 4278190335
0.061377365 0.030322129 0.13609999 4278190335
0.061832592 0.030388968 0.1364 4278190335
0.062380351 0.030500364 0.13689999 4278190335
0.062930465 0.030611763 0.1374 4278190335
0.06348291 0.030723158 0.13789999 4278190335
0.063991442 0.030812277 0.1383 4278190335
0.064501844 0.030901391 0.13869999 4278190335
-0.027777754 0.032622576 0.14489999 4278190335
-0.027418951 0.03260006 0.14479999 4278190335
-0.027060615 0.032577548 0.14469999 4278190335
-0.026684286 0.032532521 0.1445 4278190335
-0.026308892 0.032487493 0.1443 4278190335
-0.02589844 0.032397438 0.14389999 4278190335
-0.025525395 0.03235241 0.1437 4278190335
-0.025135756 0.032284871 0.1434 4278190335
-0.024764817 0.032239839 0.1432 4278190335
-0.024394818 0.032194812 0.14299999 4278190335
-0.024008933 0.032127272 0.1427 4278190335
-0.023641048 0.032082245 0.1425 4278190335
-0.023274098 0.032037217 0.14229999 4278190335
-0.022924207 0.032014702 0.14219999 4278190335
-0.022574786 0.031992186 0.14209999 4278190335
-0.022225833 0.031969674 0.14199999 4278190335
-0.021877352 0.031947162 0.1419 4278190335
-0.021529337 0.031924646 0.1418 4278190335
-0.021181794 0.031902134 0.1417 4278190335
-0.020849431 0.031902134 0.1417 4278190335
-0.02051707 0.031902134 0.1417 4278190335
-0.020184707 0.031902134 0.1417 4278190335
-0.019838335 0.031879619 0.1416 4278190335
-0.019506209 0.031879619 0.1416 4278190335
-0.01917408 0.031879619 0.1416 4278190335
-0.018841956 0.031879619 0.1416 4278190335
-0.018509828 0.031879619 0.1416 4278190335
-0.018177701 0.031879619 0.1416 4278190335
-0.01783297 0.031857107 0.1415 4278190335
-0.017488709 0.031834591 0.14139999 4278190335
-0.01715705 0.031834591 0.14139999 4278190335
-0.016813492 0.031812076 0.14129999 4278190335
-0.01648207 0.031812076 0.14129999 4278190335
-0.016139215 0.031789564 0.14119999 4278190335
-0.015796831 0.031767048 0.14109999 4278190335
-0.015454917 0.031744536 0.141 4278190335
-0.015124198 0.031744536 0.141 4278190335
-0.014793478 0.031744536 0.141 4278190335
-0.014473014 0.031767048 0.14109999 4278190335
-0.014142059 0.031767048 0.14109999 4278190335
-0.013811104 0.031767048 0.14109999 4278190335
-0.013499258 0.031812076 0.14129999 4278190335
-0.013167835 0.031812076 0.14129999 4278190335
-0.012836411 0.031812076 0.14129999 4278190335
-0.012504987 0.031812076 0.14129999 4278190335
-0.012182179 0.031834591 0.14139999 4278190335
-0.011850521 0.031834591 0.14139999 4278190335
-0.011527009 0.031857107 0.1415 4278190335
-0.011195118 0.031857107 0.1415 4278190335
-0.010870902 0.031879619 0.1416 4278190335
-0.010538775 0.031879619 0.1416 4278190335
-0.010206647 0.031879619 0.1416 4278190335
-0.0098814936 0.031902134 0.1417 4278190335
-0.0095491316 0.031902134 0.1417 4278190335
-0.0092492923 0.032014702 0.14219999 4278190335
-0.0089471079 0.032127272 0.1427 4278190335
-0.0086606825 0.032307383 0.1435 4278190335
-0.0083763059 0.032510009 0.1444 4278190335
-0.0080988389 0.032757659 0.14549999 4278190335
-0.0078055491 0.032960285 0.14639999 4278190335
-0.0075182319 0.033207934 0.14749999 4278190335
-0.0072257542 0.033455588 0.1486 4278190335
-0.0069096037 0.033613186 0.14929999 4278190335
-0.0065638097 0.033635698 0.1494 4278190335
-0.0062175463 0.033658214 0.1495 4278190335
-0.0058668894 0.033658214 0.1495 4278190335
-0.005512543 0.033635698 0.1494 4278190335
-0.0051621203 0.033635698 0.1494 4278190335
-0.0048084771 0.033613186 0.14929999 4278190335
-0.004452317 0.033568159 0.14909999 4278190335
-0.0040998473 0.033545643 0.14899999 4278190335
-0.003747846 0.033523131 0.1489 4278190335
-0.003391749 0.033455588 0.1486 4278190335
-0.0030411552 0.033433076 0.1485 4278190335
-0.002689217 0.033388048 0.14829999 4278190335
-0.0023366387 0.033320509 0.148 4278190335
-0.0019854673 0.033252966 0.1477 4278190335
-0.001635703 0.033185422 0.14739999 4278190335
-0.0012855961 0.033072855 0.1469 4278190335
-0.0009378345 0.032960285 0.14639999 4278190335
-0.0005924186 0.032847714 0.1459 4278190335
-0.00024951965 0.032757659 0.14549999 4278190335
9.1376714e-05 0.032622576 0.14489999 4278190335
0.0004303513 0.032555033 0.14459999 4278190335
0.0014358273 0.032284871 0.1434 4278190335
0.0021026442 0.032194812 0.14299999 4278190335
0.0070440117 0.031789564 0.14119999 4278190335
0.0073804241 0.031812076 0.14129999 4278190335
0.0077227633 0.031857107 0.1415 4278190335
0.0080660405 0.031902134 0.1417 4278190335
0.0091015017 0.032037217 0.14229999 4278190335
0.0094352709 0.032037217 0.14229999 4278190335
0.0097896354 0.03210476 0.1426 4278190335
0.010131208 0.032127272 0.1427 4278190335
0.01047325 0.032149788 0.1428 4278190335
0.010808191 0.032149788 0.1428 4278190335
0.042855572 0.030866496 0.1371 4278190335
0.043051172 0.030776439 0.13669999 4278190335
0.043340083 0.030753927 0.1366 4278190335
0.043628518 0.030731414 0.1365 4278190335
0.043884289 0.030686386 0.1363 4278190335
0.044171553 0.03066387 0.1362 4278190335
0.044458348 0.030641356 0.13609999 4278190335
0.044777576 0.030641356 0.13609999 4278190335
0.045096803 0.030641356 0.13609999 4278190335
0.04538266 0.030618843 0.13599999 4278190335
0.045701653 0.030618843 0.13599999 4278190335
0.045952968 0.030573817 0.1358 4278190335
0.046305563 0.030596329 0.13589999 4278190335
0.046590015 0.030573817 0.1358 4278190335
0.046908539 0.030573817 0.1358 4278190335
0.047227059 0.030573817 0.1358 4278190335
0.047475558 0.030528789 0.1356 4278190335
0.047758367 0.030506274 0.1355 4278190335
0.048040703 0.03048376 0.1354 4278190335
0.048286859 0.030438732 0.13519999 4278190335
0.048603974 0.030438732 0.13519999 4278190335
0.048848718 0.030393703 0.13499999 4278190335
0.049092535 0.030348679 0.1348 4278190335
0.049335402 0.03030365 0.1346 4278190335
0.049651112 0.03030365 0.1346 4278190335
0.049892575 0.030258622 0.1344 4278190335
0.050170455 0.030236106 0.13429999 4278190335
0.050410278 0.030191079 0.13409999 4278190335
0.050686993 0.030168567 0.134 4278190335
0.051001292 0.030168567 0.134 4278190335
0.051277298 0.030146053 0.1339 4278190335
0.051591367 0.030146053 0.1339 4278190335
0.051866665 0.030123539 0.1338 4278190335
0.052180499 0.030123539 0.1338 4278190335
0.052494332 0.030123539 0.1338 4278190335
0.052808162 0.030123539 0.1338 4278190335
0.053121995 0.030123539 0.1338 4278190335
0.053435829 0.030123539 0.1338 4278190335
0.053749658 0.030123539 0.1338 4278190335
0.0541039 0.030146053 0.1339 4278190335
0.054458607 0.030168567 0.134 4278190335
0.05481378 0.030191079 0.13409999 4278190335
0.055169422 0.030213593 0.13419999 4278190335
0.055525538 0.030236106 0.13429999 4278190335
0.055965278 0.03030365 0.1346 4278190335
0.056406431 0.030371193 0.1349 4278190335
0.056722842 0.030371193 0.1349 4278190335
0.057081532 0.030393703 0.13499999 4278190335
0.057355668 0.030371193 0.1349 4278190335
0.057714827 0.030393703 0.13499999 4278190335
0.058074459 0.030416219 0.13509999 4278190335
0.058434565 0.030438732 0.13519999 4278190335
0.05875168 0.030438732 0.13519999 4278190335
0.059156176 0.03048376 0.1354 4278190335
0.059517685 0.030506274 0.1355 4278190335
0.059879668 0.030528789 0.1356 4278190335
0.060242116 0.030551303 0.1357 4278190335
0.060605034 0.030573817 0.1358 4278190335
0.060923554 0.030573817 0.1358 4278190335
0.061287172 0.030596329 0.13589999 4278190335
0.061696593 0.030641356 0.13609999 4278190335
0.062152524 0.0307089 0.1364 4278190335
0.062609851 0.030776439 0.13669999 4278190335
0.063114628 0.030866496 0.1371 4278190335
0.063575014 0.030934038 0.1374 4278190335
0.063990295 0.030979063 0.13759999 4278190335
-0.027739413 0.032916944 0.14469999 4278190335
-0.027381077 0.032894198 0.14459999 4278190335
-0.027004514 0.032848705 0.1444 4278190335
-0.026647352 0.032825954 0.1443 4278190335
-0.026254194 0.032757707 0.14399999 4278190335
-0.025880443 0.03271221 0.14379999 4278190335
-0.025489867 0.032643966 0.1435 4278190335
-0.025118226 0.032598469 0.1433 4278190335
-0.024764817 0.032575719 0.1432 4278190335
-0.024394818 0.032530222 0.14299999 4278190335
-0.024025759 0.032484729 0.1428 4278190335
-0.023674229 0.032461978 0.1427 4278190335
-0.023323165 0.032439232 0.1426 4278190335
-0.02295645 0.032393735 0.1424 4278190335
-0.022606559 0.032370985 0.14229999 4278190335
-0.022257138 0.032348238 0.14219999 4278190335
-0.021923603 0.032348238 0.14219999 4278190335
-0.021590069 0.032348238 0.14219999 4278190335
-0.021241585 0.032325488 0.14209999 4278190335
-0.020908285 0.032325488 0.14209999 4278190335
-0.020560505 0.032302737 0.14199999 4278190335
-0.020213198 0.032279994 0.1419 4278190335
-0.019866357 0.032257244 0.1418 4278190335
-0.019533759 0.032257244 0.1418 4278190335
-0.019201163 0.032257244 0.1418 4278190335
-0.018855263 0.032234497 0.1417 4278190335
-0.0185229 0.032234497 0.1417 4278190335
-0.018190539 0.032234497 0.1417 4278190335
-0.017858176 0.032234497 0.1417 4278190335
-0.017501077 0.032188997 0.1415 4278190335
-0.01715705 0.03216625 0.14139999 4278190335
-0.016825393 0.03216625 0.14139999 4278190335
-0.01648207 0.0321435 0.14129999 4278190335
-0.016150646 0.0321435 0.14129999 4278190335
-0.015796831 0.032098003 0.14109999 4278190335
-0.015454917 0.032075256 0.141 4278190335
-0.015113471 0.032052509 0.1409 4278190335
-0.014782986 0.032052509 0.1409 4278190335
-0.0144525 0.032052509 0.1409 4278190335
-0.014132038 0.032075256 0.141 4278190335
-0.013811104 0.032098003 0.14109999 4278190335
-0.013480151 0.032098003 0.14109999 4278190335
-0.013158515 0.032120753 0.14119999 4278190335
-0.012836411 0.0321435 0.14129999 4278190335
-0.012504987 0.0321435 0.14129999 4278190335
-0.012173563 0.0321435 0.14129999 4278190335
-0.01184214 0.0321435 0.14129999 4278190335
-0.011510716 0.0321435 0.14129999 4278190335
-0.011187205 0.03216625 0.14139999 4278190335
-0.010855547 0.03216625 0.14139999 4278190335
-0.010531331 0.032188997 0.1415 4278190335
-0.010199439 0.032188997 0.1415 4278190335
-0.0098675461 0.032188997 0.1415 4278190335
-0.0095491316 0.032234497 0.1417 4278190335
-0.0092492923 0.032348238 0.14219999 4278190335
-0.0089471079 0.032461978 0.1427 4278190335
-0.0086606825 0.032643966 0.1435 4278190335
-0.0083821062 0.032871451 0.1445 4278190335
-0.0080988389 0.033098932 0.14549999 4278190335
-0.0078215441 0.033371914 0.14669999 4278190335
-0.0075284261 0.033599399 0.1477 4278190335
-0.0072354791 0.033849634 0.1488 4278190335
-0.0069188601 0.034008872 0.1495 4278190335
-0.0065725967 0.034031618 0.1496 4278190335
-0.0062217056 0.034031618 0.1496 4278190335
-0.0058668894 0.034008872 0.1495 4278190335
-0.0055162329 0.034008872 0.1495 4278190335
-0.0051621203 0.033986121 0.1494 4278190335
-0.0048084771 0.033963375 0.14929999 4278190335
-0.0044553033 0.033940624 0.14919999 4278190335
-0.0040998473 0.033895127 0.14899999 4278190335
-0.0037453291 0.033849634 0.1488 4278190335
-0.0033940317 0.033826884 0.1487 4278190335
-0.0030411552 0.033781387 0.1485 4278190335
-0.002689217 0.03373589 0.14829999 4278190335
-0.0023366387 0.033667646 0.148 4278190335
-0.0019854673 0.033599399 0.1477 4278190335
-0.0016368128 0.033553902 0.14749999 4278190335
-0.0012855961 0.033417411 0.1469 4278190335
-0.00093847513 0.033326417 0.14649999 4278190335
9.1502843e-05 0.033007942 0.1451 4278190335
0.00043064891 0.032916944 0.14469999 4278190335
0.0007673864 0.032803204 0.1442 4278190335
0.0064042322 0.032234497 0.1417 4278190335
0.0067318399 0.032211747 0.1416 4278190335
0.0070589776 0.032188997 0.1415 4278190335
0.007396094 0.032211747 0.1416 4278190335
0.0077391369 0.032257244 0.1418 4278190335
0.0080831172 0.032302737 0.14199999 4278190335
0.0084221093 0.032325488 0.14209999 4278190335
0.0087677324 0.032370985 0.14229999 4278190335
0.0091142934 0.032416482 0.1425 4278190335
0.009455163 0.032439232 0.1426 4278190335
0.0097965011 0.032461978 0.1427 4278190335
0.010138308 0.032484729 0.1428 4278190335
0.010480584 0.032507475 0.14289999 4278190335
0.043240134 0.031233566 0.1373 4278190335
0.043916486 0.03102883 0.1364 4278190335
0.044236418 0.03102883 0.1364 4278190335
0.044556346 0.03102883 0.1364 4278190335
0.044843376 0.031006081 0.1363 4278190335
0.045196209 0.03102883 0.1364 4278190335
0.045516141 0.03102883 0.1364 4278190335
0.045836069 0.03102883 0.1364 4278190335
0.04612216 0.031006081 0.1363 4278190335
0.046407782 0.030983333 0.1362 4278190335
0.046692938 0.030960584 0.13609999 4278190335
0.046977621 0.030937836 0.13599999 4278190335
0.04729661 0.030937836 0.13599999 4278190335
0.047580589 0.030915085 0.13589999 4278190335
0.047864106 0.03089234 0.1358 4278190335
0.048147146 0.030869592 0.1357 4278190335
0.048394006 0.030824095 0.1355 4278190335
0.048639923 0.030778596 0.1353 4278190335
0.04892109 0.030755848 0.13519999 4278190335
0.049128953 0.030687604 0.1349 4278190335
0.049408711 0.030664856 0.1348 4278190335
0.049651112 0.030619359 0.1346 4278190335
0.049855452 0.030551111 0.13429999 4278190335
0.050133098 0.030528363 0.13419999 4278190335
0.05037269 0.03048287 0.134 4278190335
0.050686993 0.03048287 0.134 4278190335
0.050925169 0.030437371 0.1338 4278190335
0.051239002 0.030437371 0.1338 4278190335
0.051552836 0.030437371 0.1338 4278190335
0.051866665 0.030437371 0.1338 4278190335
0.052180499 0.030437371 0.1338 4278190335
0.052494332 0.030437371 0.1338 4278190335
0.052768696 0.030414622 0.1337 4278190335
0.053082291 0.030414622 0.1337 4278190335
0.05339589 0.030414622 0.1337 4278190335
0.053749658 0.030437371 0.1338 4278190335
0.054063492 0.030437371 0.1338 4278190335
0.054417964 0.030460121 0.1339 4278190335
0.05477291 0.03048287 0.134 4278190335
0.055087205 0.03048287 0.134 4278190335
0.055484191 0.030528363 0.13419999 4278190335
0.0559237 0.03059661 0.1345 4278190335
0.056322802 0.030642107 0.1347 4278190335
0.056680795 0.030664856 0.1348 4278190335
0.057039257 0.030687604 0.1349 4278190335
0.057355668 0.030687604 0.1349 4278190335
0.05767208 0.030687604 0.1349 4278190335
0.058031473 0.030710351 0.13499999 4278190335
0.05839134 0.030733099 0.13509999 4278190335
0.05875168 0.030755848 0.13519999 4278190335
0.059068795 0.030755848 0.13519999 4278190335
0.05947376 0.030801345 0.1354 4278190335
0.059835508 0.030824095 0.1355 4278190335
0.060153328 0.030824095 0.1355 4278190335
0.060560405 0.030869592 0.1357 4278190335
0.060923554 0.03089234 0.1358 4278190335
0.061242077 0.03089234 0.1358 4278190335
0.061605927 0.030915085 0.13589999 4278190335
0.06201582 0.030960584 0.13609999 4278190335
0.06238085 0.030983333 0.1362 4278190335
0.062792383 0.03102883 0.1364 4278190335
0.063204855 0.031074328 0.1366 4278190335
0.063571751 0.031097073 0.13669999 4278190335
-0.027701074 0.033210382 0.1445 4278190335
-0.027324272 0.033164416 0.1443 4278190335
-0.026985813 0.033164416 0.1443 4278190335
-0.026610417 0.033118449 0.1441 4278190335
-0.026217729 0.033049498 0.14379999 4278190335
-0.025862448 0.033026516 0.1437 4278190335
-0.025489867 0.03298055 0.1435 4278190335
-0.025135756 0.032957569 0.1434 4278190335
-0.024782112 0.032934584 0.1433 4278190335
-0.024428938 0.032911602 0.1432 4278190335
-0.024076233 0.032888617 0.14309999 4278190335
-0.023707407 0.032842651 0.14289999 4278190335
-0.023372231 0.032842651 0.14289999 4278190335
-0.023020936 0.03281967 0.1428 4278190335
-0.022670107 0.032796688 0.1427 4278190335
-0.022335399 0.032796688 0.1427 4278190335
-0.021985274 0.032773703 0.1426 4278190335
-0.021620436 0.032727737 0.1424 4278190335
-0.021286432 0.032727737 0.1424 4278190335
-0.020937713 0.032704756 0.14229999 4278190335
-0.020589465 0.032681771 0.14219999 4278190335
-0.020255931 0.032681771 0.14219999 4278190335
-0.019908385 0.032658789 0.14209999 4278190335
-0.019547535 0.032612823 0.1419 4278190335
-0.019214705 0.032612823 0.1419 4278190335
-0.018868569 0.032589842 0.1418 4278190335
-0.018535972 0.032589842 0.1418 4278190335
-0.018190539 0.032566857 0.1417 4278190335
-0.017858176 0.032566857 0.1417 4278190335
-0.017513447 0.032543875 0.1416 4278190335
-0.017169185 0.03252089 0.1415 4278190335
-0.016825393 0.032497909 0.14139999 4278190335
-0.01648207 0.032474924 0.14129999 4278190335
-0.016150646 0.032474924 0.14129999 4278190335
-0.015796831 0.032428958 0.14109999 4278190335
-0.015454917 0.032405976 0.141 4278190335
-0.015113471 0.032382995 0.1409 4278190335
-0.014782986 0.032382995 0.1409 4278190335
-0.0144525 0.032382995 0.1409 4278190335
-0.014122015 0.032382995 0.1409 4278190335
-0.013791529 0.032382995 0.1409 4278190335
-0.013470598 0.032405976 0.141 4278190335
-0.013149196 0.032428958 0.14109999 4278190335
-0.012818241 0.032428958 0.14109999 4278190335
-0.012496137 0.032451943 0.14119999 4278190335
-0.012164949 0.032451943 0.14119999 4278190335
-0.01184214 0.032474924 0.14129999 4278190335
-0.011510716 0.032474924 0.14129999 4278190335
-0.011179294 0.032474924 0.14129999 4278190335
-0.01084787 0.032474924 0.14129999 4278190335
-0.010516446 0.032474924 0.14129999 4278190335
-0.010192231 0.032497909 0.14139999 4278190335
-0.0098605724 0.032497909 0.14139999 4278190335
-0.0095423926 0.032543875 0.1416 4278190335
-0.009242788 0.032658789 0.14209999 4278190335
-0.0089471079 0.032796688 0.1427 4278190335
-0.0086667184 0.033003535 0.1436 4278190335
-0.0083937077 0.033256344 0.14469999 4278190335
-0.0081155375 0.033509158 0.14579999 4278190335
-0.0078322077 0.033761971 0.1469 4278190335
-0.0075386204 0.033991802 0.1479 4278190335
-0.0072452039 0.034244612 0.14899999 4278190335
-0.0069234879 0.034382511 0.1496 4278190335
-0.0065725967 0.034382511 0.1496 4278190335
-0.0062217056 0.034382511 0.1496 4278190335
-0.0058668894 0.03435953 0.1495 4278190335
-0.0055162329 0.03435953 0.1495 4278190335
-0.0051586651 0.034313563 0.14929999 4278190335
-0.0048020356 0.034267593 0.14909999 4278190335
-0.0044463454 0.034221631 0.1489 4278190335
-0.0040915925 0.034175664 0.1487 4278190335
-0.0037402948 0.034152683 0.1486 4278190335
-0.0033871841 0.034106717 0.14839999 4278190335
-0.0030350112 0.034060746 0.14819999 4278190335
-0.0026837771 0.034014784 0.148 4278190335
-0.002331902 0.033945836 0.1477 4278190335
-0.0019841229 0.033922851 0.1476 4278190335
-0.0016345934 0.0338539 0.14729999 4278190335
-0.0012864713 0.033784956 0.147 4278190335
-0.00093847513 0.033670038 0.14649999 4278190335
0.00043124415 0.033302311 0.14489999 4278190335
0.00076791859 0.033164416 0.1443 4278190335
0.0011017785 0.033026516 0.1437 4278190335
0.0070589776 0.03252089 0.1415 4278190335
0.007396094 0.032543875 0.1416 4278190335
0.0077336794 0.032566857 0.1417 4278190335
0.0080774259 0.032612823 0.1419 4278190335
0.0084221093 0.032658789 0.14209999 4278190335
0.0087615708 0.032681771 0.14219999 4278190335
0.009107898 0.032727737 0.1424 4278190335
0.009448532 0.032750722 0.1425 4278190335
0.0097896354 0.032773703 0.1426 4278190335
0.010138308 0.03281967 0.1428 4278190335
0.010487918 0.032865636 0.14299999 4278190335
0.045567185 0.031831402 0.13849999 4278190335
0.045759503 0.03173947 0.1381 4278190335
0.045949943 0.031647537 0.13769999 4278190335
0.046172112 0.031578589 0.1374 4278190335
0.046392869 0.031509642 0.1371 4278190335
0.046646297 0.031463675 0.13689999 4278190335
0.04683017 0.031371742 0.1365 4278190335
0.047081251 0.031325776 0.1363 4278190335
0.04740094 0.031325776 0.1363 4278190335
0.047720637 0.031325776 0.1363 4278190335
0.048005085 0.031302795 0.1362 4278190335
0.048218105 0.031233843 0.13589999 4278190335
0.048501153 0.031210864 0.1358 4278190335
0.048711825 0.031141914 0.1355 4278190335
0.04892109 0.031072963 0.13519999 4278190335
0.049165368 0.031026997 0.13499999 4278190335
0.049408711 0.030981034 0.1348 4278190335
0.049651112 0.030935068 0.1346 4278190335
0.049855452 0.030866116 0.13429999 4278190335
0.050095741 0.03082015 0.13409999 4278190335
0.05037269 0.03079717 0.134 4278190335
0.050649166 0.030774187 0.1339 4278190335
0.050925169 0.030751204 0.1338 4278190335
0.051200707 0.030728221 0.1337 4278190335
0.051514305 0.030728221 0.1337 4278190335
0.0518279 0.030728221 0.1337 4278190335
0.052141499 0.030728221 0.1337 4278190335
0.052415863 0.030705238 0.1336 4278190335
0.052729227 0.030705238 0.1336 4278190335
0.053042591 0.030705238 0.1336 4278190335
0.053355951 0.030705238 0.1336 4278190335
0.053709488 0.030728221 0.1337 4278190335
0.054023083 0.030728221 0.1337 4278190335
0.054377325 0.030751204 0.1338 4278190335
0.054732032 0.030774187 0.1339 4278190335
0.055087205 0.03079717 0.134 4278190335
0.055442847 0.03082015 0.13409999 4278190335
0.055840541 0.030866116 0.13429999 4278190335
0.056280989 0.030935068 0.1346 4278190335
0.056638747 0.030958051 0.1347 4278190335
0.056996971 0.030981034 0.1348 4278190335
0.057313152 0.030981034 0.1348 4278190335
0.05767208 0.031004017 0.1349 4278190335
0.057988495 0.031004017 0.1349 4278190335
0.058348119 0.031026997 0.13499999 4278190335
0.058708224 0.03104998 0.13509999 4278190335
0.059068795 0.031072963 0.13519999 4278190335
0.059385911 0.031072963 0.13519999 4278190335
0.059791345 0.031118931 0.1354 4278190335
0.060153328 0.031141914 0.1355 4278190335
0.060515776 0.031164898 0.1356 4278190335
0.06083383 0.031164898 0.1356 4278190335
0.061196983 0.031187881 0.1357 4278190335
0.061515272 0.031187881 0.1357 4278190335
0.061879124 0.031210864 0.1358 4278190335
0.062289245 0.031256828 0.13599999 4278190335
0.062654272 0.03127981 0.13609999 4278190335
0.062973499 0.03127981 0.13609999 4278190335
0.063339233 0.031302795 0.1362 4278190335
-0.027662734 0.033502873 0.1443 4278190335
-0.027324272 0.033502873 0.1443 4278190335
-0.026948409 0.033456437 0.1441 4278190335
-0.026573485 0.033410002 0.14389999 4278190335
-0.026199501 0.03336357 0.1437 4278190335
-0.025844449 0.03334035 0.1436 4278190335
-0.025472105 0.033293914 0.1434 4278190335
-0.025118226 0.033270698 0.1433 4278190335
-0.024782112 0.033270698 0.1433 4278190335
-0.024428938 0.033247478 0.1432 4278190335
-0.024093056 0.033247478 0.1432 4278190335
-0.023757178 0.033247478 0.1432 4278190335
-0.023404943 0.033224262 0.14309999 4278190335
-0.023069298 0.033224262 0.14309999 4278190335
-0.022717765 0.033201043 0.14299999 4278190335
-0.022366701 0.033177827 0.14289999 4278190335
-0.02201611 0.033154611 0.1428 4278190335
-0.021665985 0.033131395 0.1427 4278190335
-0.021331277 0.033131395 0.1427 4278190335
-0.020996569 0.033131395 0.1427 4278190335
-0.020632902 0.033084959 0.1425 4278190335
-0.02028442 0.033061739 0.1424 4278190335
-0.019936405 0.033038523 0.14229999 4278190335
-0.01958886 0.033015303 0.14219999 4278190335
-0.019255325 0.033015303 0.14219999 4278190335
-0.018895181 0.032968868 0.14199999 4278190335
-0.018549044 0.032945652 0.1419 4278190335
-0.018216213 0.032945652 0.1419 4278190335
-0.01787078 0.032922436 0.1418 4278190335
-0.017525814 0.032899216 0.1417 4278190335
-0.017181318 0.032876 0.1416 4278190335
-0.016837291 0.03285278 0.1415 4278190335
-0.016493734 0.032829564 0.14139999 4278190335
-0.016150646 0.032806344 0.14129999 4278190335
-0.015796831 0.032759909 0.14109999 4278190335
-0.015454917 0.032736696 0.141 4278190335
-0.015102744 0.032690261 0.1408 4278190335
-0.014772493 0.032690261 0.1408 4278190335
-0.014442243 0.032690261 0.1408 4278190335
-0.014111992 0.032690261 0.1408 4278190335
-0.01378174 0.032690261 0.1408 4278190335
-0.013461045 0.032713477 0.1409 4278190335
-0.01313056 0.032713477 0.1409 4278190335
-0.012800073 0.032713477 0.1409 4278190335
-0.012478438 0.032736696 0.141 4278190335
-0.012147718 0.032736696 0.141 4278190335
-0.011825378 0.032759909 0.14109999 4278190335
-0.011494423 0.032759909 0.14109999 4278190335
-0.011171382 0.032783128 0.14119999 4278190335
-0.010840192 0.032783128 0.14119999 4278190335
-0.010516446 0.032806344 0.14129999 4278190335
-0.010185023 0.032806344 0.14129999 4278190335
-0.0098535987 0.032806344 0.14129999 4278190335
-0.0095289145 0.032829564 0.14139999 4278190335
-0.009242788 0.032992087 0.14209999 4278190335
-0.0089471079 0.033131395 0.1427 4278190335
-0.0086727533 0.03336357 0.1437 4278190335
-0.0081155375 0.033851136 0.14579999 4278190335
-0.0078322077 0.034106527 0.1469 4278190335
-0.0075437175 0.034361921 0.148 4278190335
-0.0072452039 0.034594093 0.14899999 4278190335
-0.0069188601 0.034710184 0.1495 4278190335
-0.0065682032 0.034710184 0.1495 4278190335
-0.0062133875 0.034686964 0.1494 4278190335
-0.0058590407 0.034663748 0.14929999 4278190335
-0.0055014733 0.034617312 0.14909999 4278190335
-0.0051413891 0.03454766 0.1488 4278190335
-0.0047859326 0.034501225 0.1486 4278190335
-0.0044344007 0.034478009 0.1485 4278190335
-0.0040805861 0.034431573 0.14829999 4278190335
-0.0037277099 0.034385141 0.1481 4278190335
-0.0033757719 0.034338705 0.1479 4278190335
-0.0030247718 0.034292269 0.1477 4278190335
-0.0026747102 0.03424583 0.14749999 4278190335
-0.0023255867 0.034199394 0.14729999 4278190335
-0.0019774018 0.034152962 0.1471 4278190335
-0.0016312643 0.034129746 0.147 4278190335
-0.0012829705 0.034036875 0.14659999 4278190335
-0.00093655341 0.033944007 0.1462 4278190335
-0.00059160654 0.033827916 0.14569999 4278190335
-0.0002493482 0.033758268 0.1454 4278190335
0.00076472556 0.03336357 0.1437 4278190335
0.0010979448 0.033247478 0.1432 4278190335
0.0014298197 0.033154611 0.1428 4278190335
0.001761054 0.033084959 0.1425 4278190335
0.0020923514 0.033038523 0.14229999 4278190335
0.0024244157 0.033015303 0.14219999 4278190335
0.00275795 0.033015303 0.14219999 4278190335
0.0030893106 0.032992087 0.14209999 4278190335
0.0034202018 0.032968868 0.14199999 4278190335
0.003753267 0.032968868 0.14199999 4278190335
0.004416286 0.032945652 0.1419 4278190335
0.004749117 0.032945652 0.1419 4278190335
0.0050747851 0.032899216 0.1417 4278190335
0.0070490004 0.032806344 0.14129999 4278190335
0.0073804241 0.032806344 0.14129999 4278190335
0.0077227633 0.03285278 0.1415 4278190335
0.0080660405 0.032899216 0.1417 4278190335
0.0084102564 0.032945652 0.1419 4278190335
0.0087554101 0.032992087 0.14209999 4278190335
0.009088709 0.032992087 0.14209999 4278190335
0.0094286399 0.033015303 0.14219999 4278190335
0.0097621744 0.033015303 0.14219999 4278190335
0.010117008 0.033084959 0.1425 4278190335
0.010458581 0.033108175 0.1426 4278190335
0.010785485 0.033084959 0.1425 4278190335
0.046541754 0.032156255 0.13849999 4278190335
0.04673126 0.032063387 0.1381 4278190335
0.046884809 0.031947296 0.13759999 4278190335
0.047036014 0.031831212 0.1371 4278190335
0.047219414 0.031738341 0.13669999 4278190335
0.047540046 0.031738341 0.13669999 4278190335
0.047860682 0.031738341 0.13669999 4278190335
0.048110828 0.031691909 0.1365 4278190335
0.048395511 0.031668689 0.1364 4278190335
0.048608296 0.031599034 0.13609999 4278190335
0.048819676 0.031529386 0.1358 4278190335
0.049029645 0.03145973 0.1355 4278190335
0.049238205 0.031390078 0.13519999 4278190335
0.049445365 0.031320427 0.1349 4278190335
0.049651112 0.031250775 0.1346 4278190335
0.049855452 0.031181119 0.13429999 4278190335
0.050058387 0.031111469 0.134 4278190335
0.05037269 0.031111469 0.134 4278190335
0.05061134 0.031065034 0.1338 4278190335
0.050887108 0.031041816 0.1337 4278190335
0.051200707 0.031041816 0.1337 4278190335
0.051475774 0.031018598 0.1336 4278190335
0.051789135 0.031018598 0.1336 4278190335
0.052102499 0.031018598 0.1336 4278190335
0.052415863 0.031018598 0.1336 4278190335
0.052729227 0.031018598 0.1336 4278190335
0.053002886 0.03099538 0.13349999 4278190335
0.053316016 0.03099538 0.13349999 4278190335
0.053669315 0.031018598 0.1336 4278190335
0.054023083 0.031041816 0.1337 4278190335
0.054377325 0.031065034 0.1338 4278190335
0.054691158 0.031065034 0.1338 4278190335
0.055087205 0.031111469 0.134 4278190335
0.055442847 0.031134684 0.13409999 4278190335
0.055840541 0.031181119 0.13429999 4278190335
0.056239173 0.031227555 0.1345 4278190335
0.056596696 0.031250775 0.1346 4278190335
0.056954689 0.031273991 0.1347 4278190335
0.057313152 0.031297211 0.1348 4278190335
0.057629328 0.031297211 0.1348 4278190335
0.057945505 0.031297211 0.1348 4278190335
0.058304906 0.031320427 0.1349 4278190335
0.058664769 0.031343643 0.13499999 4278190335
0.059068795 0.031390078 0.13519999 4278190335
0.059385911 0.031390078 0.13519999 4278190335
0.059747186 0.031413294 0.1353 4278190335
0.060108934 0.031436514 0.1354 4278190335
0.060471147 0.03145973 0.1355 4278190335
0.06083383 0.03148295 0.1356 4278190335
0.061151884 0.03148295 0.1356 4278190335
0.061515272 0.031506166 0.1357 4278190335
0.061879124 0.031529386 0.1358 4278190335
0.062197648 0.031529386 0.1358 4278190335
0.062516175 0.031529386 0.1358 4278190335
0.062880963 0.031552598 0.13589999 4278190335
0.063153222 0.031529386 0.1358 4278190335
-0.027662734 0.033841334 0.1443 4278190335
-0.027286401 0.033794429 0.1441 4278190335
-0.026911005 0.033747524 0.14389999 4278190335
-0.026555017 0.03372407 0.14379999 4278190335
-0.026181268 0.033677168 0.1436 4278190335
-0.025826452 0.033653717 0.1435 4278190335
-0.025472105 0.033630263 0.1434 4278190335
-0.025135756 0.033630263 0.1434 4278190335
-0.024782112 0.033606812 0.1433 4278190335
-0.024428938 0.033583358 0.1432 4278190335
-0.024109881 0.033606812 0.1433 4278190335
-0.023773769 0.033606812 0.1433 4278190335
-0.023421299 0.033583358 0.1432 4278190335
-0.023085419 0.033583358 0.1432 4278190335
-0.022749538 0.033583358 0.1432 4278190335
-0.022413658 0.033583358 0.1432 4278190335
-0.022062359 0.033559907 0.14309999 4278190335
-0.021711532 0.033536453 0.14299999 4278190335
-0.021361172 0.033513002 0.14289999 4278190335
-0.021011284 0.033489551 0.1428 4278190335
-0.020661863 0.033466101 0.1427 4278190335
-0.020312909 0.033442646 0.1426 4278190335
-0.019964427 0.033419196 0.1425 4278190335
-0.019602636 0.03337229 0.14229999 4278190335
-0.019255325 0.03334884 0.14219999 4278190335
-0.018921793 0.03334884 0.14219999 4278190335
-0.018575186 0.033325385 0.14209999 4278190335
-0.018229049 0.033301935 0.14199999 4278190335
-0.017883383 0.033278484 0.1419 4278190335
-0.017525814 0.033231579 0.1417 4278190335
-0.017193452 0.033231579 0.1417 4278190335
-0.016849192 0.033208128 0.1416 4278190335
-0.016493734 0.033161223 0.14139999 4278190335
-0.016150646 0.033137769 0.14129999 4278190335
-0.015796831 0.033090863 0.14109999 4278190335
-0.015454917 0.033067416 0.141 4278190335
-0.015102744 0.033020511 0.1408 4278190335
-0.014772493 0.033020511 0.1408 4278190335
-0.014442243 0.033020511 0.1408 4278190335
-0.014111992 0.033020511 0.1408 4278190335
-0.01378174 0.033020511 0.1408 4278190335
-0.013451491 0.033020511 0.1408 4278190335
-0.01312124 0.033020511 0.1408 4278190335
-0.012790989 0.033020511 0.1408 4278190335
-0.012460738 0.033020511 0.1408 4278190335
-0.012139102 0.033043962 0.1409 4278190335
-0.011808617 0.033043962 0.1409 4278190335
-0.011486278 0.033067416 0.141 4278190335
-0.011155559 0.033067416 0.141 4278190335
-0.010832516 0.033090863 0.14109999 4278190335
-0.010509004 0.033114318 0.14119999 4278190335
-0.010177814 0.033114318 0.14119999 4278190335
-0.0098535987 0.033137769 0.14129999 4278190335
-0.0095289145 0.033161223 0.14139999 4278190335
-0.0092362836 0.033301935 0.14199999 4278190335
-0.0089471079 0.033466101 0.1427 4278190335
-0.0086667184 0.033677168 0.1436 4278190335
-0.0081044054 0.034146208 0.14559999 4278190335
-0.0078215441 0.034404181 0.14669999 4278190335
-0.0075335233 0.034662154 0.1478 4278190335
-0.0072354791 0.034896675 0.1488 4278190335
-0.0069142319 0.035037387 0.1494 4278190335
-0.0065594162 0.035013936 0.14929999 4278190335
-0.0062009105 0.034967031 0.14909999 4278190335
-0.0058433437 0.03492013 0.1489 4278190335
-0.0054830248 0.03484977 0.1486 4278190335
-0.0051310235 0.03482632 0.1485 4278190335
-0.0047762706 0.034779415 0.14829999 4278190335
-0.0044194702 0.034709059 0.148 4278190335
-0.0040668286 0.034662154 0.1478 4278190335
-0.0037151247 0.034615252 0.1476 4278190335
-0.0033643593 0.034568347 0.14739999 4278190335
-0.0030165799 0.034544893 0.14729999 4278190335
-0.0026674569 0.034497991 0.1471 4278190335
-0.0023192717 0.034451086 0.1469 4278190335
-0.0019733689 0.034427635 0.1468 4278190335
-0.0016290449 0.034427635 0.1468 4278190335
-0.0012812202 0.034333825 0.14639999 4278190335
-0.00093591277 0.034263469 0.1461 4278190335
-0.00059120049 0.034146208 0.14559999 4278190335
-0.00024900521 0.034052402 0.1452 4278190335
9.1187525e-05 0.033911686 0.14459999 4278190335
0.0014268159 0.033419196 0.1425 4278190335
0.0017573466 0.03334884 0.14219999 4278190335
0.0020879402 0.033301935 0.14199999 4278190335
0.0024175961 0.033255033 0.1418 4278190335
0.0027521318 0.033278484 0.1419 4278190335
0.0030827885 0.033255033 0.1418 4278190335
0.0034129762 0.033231579 0.1417 4278190335
0.0037453379 0.033231579 0.1417 4278190335
0.0040777 0.033231579 0.1417 4278190335
0.0044100615 0.033231579 0.1417 4278190335
0.0047424231 0.033231579 0.1417 4278190335
0.0050712037 0.033208128 0.1416 4278190335
0.0067175771 0.033137769 0.14129999 4278190335
0.0070390226 0.033090863 0.14109999 4278190335
0.0073752007 0.033114318 0.14119999 4278190335
0.0077118478 0.033137769 0.14129999 4278190335
0.0080603482 0.033208128 0.1416 4278190335
0.0084043294 0.033255033 0.1418 4278190335
0.0087369261 0.033255033 0.1418 4278190335
0.0090695219 0.033255033 0.1418 4278190335
0.0094087487 0.033278484 0.1419 4278190335
0.0097415801 0.033278484 0.1419 4278190335
0.01008861 0.033325385 0.14209999 4278190335
0.04209746 0.034146208 0.14559999 4278190335
0.042438969 0.034146208 0.14559999 4278190335
0.042809863 0.034169659 0.14569999 4278190335
0.043181222 0.034193113 0.14579999 4278190335
0.043582905 0.034240019 0.146 4278190335
0.043925352 0.034240019 0.146 4278190335
0.04423748 0.034216564 0.1459 4278190335
0.047137324 0.032668732 0.1393 4278190335
0.047293689 0.032551467 0.1388 4278190335
0.047379095 0.032387305 0.1381 4278190335
0.047564842 0.032293495 0.13769999 4278190335
0.04778349 0.032223143 0.1374 4278190335
0.048105765 0.032223143 0.1374 4278190335
0.048322301 0.032152783 0.1371 4278190335
0.048608392 0.032129332 0.13699999 4278190335
0.048786871 0.032035526 0.1366 4278190335
0.048927519 0.031918261 0.13609999 4278190335
0.049102012 0.031824455 0.1357 4278190335
0.049274623 0.031730644 0.1353 4278190335
0.049482014 0.031660289 0.13499999 4278190335
0.049651112 0.031566482 0.1346 4278190335
0.049855452 0.031496126 0.13429999 4278190335
0.050058387 0.03142577 0.134 4278190335
0.050335098 0.03140232 0.1339 4278190335
0.05061134 0.031378865 0.1338 4278190335
0.050887108 0.031355415 0.1337 4278190335
0.051162411 0.03133196 0.1336 4278190335
0.051475774 0.03133196 0.1336 4278190335
0.051789135 0.03133196 0.1336 4278190335
0.052102499 0.03133196 0.1336 4278190335
0.052376628 0.031308509 0.13349999 4278190335
0.052689757 0.031308509 0.13349999 4278190335
0.053002886 0.031308509 0.13349999 4278190335
0.053316016 0.031308509 0.13349999 4278190335
0.053629141 0.031308509 0.13349999 4278190335
0.054023083 0.031355415 0.1337 4278190335
0.054377325 0.031378865 0.1338 4278190335
0.054691158 0.031378865 0.1338 4278190335
0.055087205 0.03142577 0.134 4278190335
0.055442847 0.031449221 0.13409999 4278190335
0.055840541 0.031496126 0.13429999 4278190335
0.056239173 0.031543031 0.1345 4278190335
0.056596696 0.031566482 0.1346 4278190335
0.056912407 0.031566482 0.1346 4278190335
0.057270631 0.031589936 0.1347 4278190335
0.057629328 0.031613387 0.1348 4278190335
0.057945505 0.031613387 0.1348 4278190335
0.058304906 0.031636842 0.1349 4278190335
0.058664769 0.031660289 0.13499999 4278190335
0.059025105 0.031683743 0.13509999 4278190335
0.059385911 0.031707194 0.13519999 4278190335
0.059703026 0.031707194 0.13519999 4278190335
0.060108934 0.031754099 0.1354 4278190335
0.060471147 0.03177755 0.1355 4278190335
0.060788967 0.03177755 0.1355 4278190335
0.061106786 0.03177755 0.1355 4278190335
0.061424606 0.03177755 0.1355 4278190335
0.061787993 0.031801004 0.1356 4278190335
0.062106047 0.031801004 0.1356 4278190335
0.062424101 0.031801004 0.1356 4278190335
0.062742151 0.031801004 0.1356 4278190335
0.063013703 0.03177755 0.1355 4278190335
-0.027624391 0.034132421 0.1441 4278190335
-0.027229592 0.034061357 0.14379999 4278190335
-0.026873605 0.034037676 0.1437 4278190335
-0.026536552 0.034037676 0.1437 4278190335
-0.026163036 0.033990301 0.1435 4278190335
-0.025808454 0.033966612 0.1434 4278190335
-0.025472105 0.033966612 0.1434 4278190335
-0.025118226 0.033942927 0.1433 4278190335
-0.024799407 0.033966612 0.1434 4278190335
-0.024463056 0.033966612 0.1434 4278190335
-0.024109881 0.033942927 0.1433 4278190335
-0.023790359 0.033966612 0.1434 4278190335
-0.02345401 0.033966612 0.1434 4278190335
-0.023117661 0.033966612 0.1434 4278190335
-0.022781312 0.033966612 0.1434 4278190335
-0.02242931 0.033942927 0.1433 4278190335
-0.022077778 0.033919241 0.1432 4278190335
-0.021741897 0.033919241 0.1432 4278190335
-0.02139107 0.033895552 0.14309999 4278190335
-0.02104071 0.033871867 0.14299999 4278190335
-0.020676341 0.033824496 0.1428 4278190335
-0.020327155 0.033800807 0.1427 4278190335
-0.019964427 0.033753432 0.1425 4278190335
-0.019616412 0.033729747 0.1424 4278190335
-0.019268867 0.033706062 0.14229999 4278190335
-0.018921793 0.033682372 0.14219999 4278190335
-0.018575186 0.033658687 0.14209999 4278190335
-0.018229049 0.033634998 0.14199999 4278190335
-0.017883383 0.033611316 0.1419 4278190335
-0.017525814 0.033563942 0.1417 4278190335
-0.017193452 0.033563942 0.1417 4278190335
-0.016849192 0.033540253 0.1416 4278190335
-0.016493734 0.033492882 0.14139999 4278190335
-0.016150646 0.033469193 0.14129999 4278190335
-0.015796831 0.033421818 0.14109999 4278190335
-0.015454917 0.033398136 0.141 4278190335
-0.015113471 0.033374447 0.1409 4278190335
-0.014772493 0.033350762 0.1408 4278190335
-0.014442243 0.033350762 0.1408 4278190335
-0.014111992 0.033350762 0.1408 4278190335
-0.01378174 0.033350762 0.1408 4278190335
-0.013451491 0.033350762 0.1408 4278190335
-0.01312124 0.033350762 0.1408 4278190335
-0.012781904 0.033327073 0.1407 4278190335
-0.012460738 0.033350762 0.1408 4278190335
-0.012130487 0.033350762 0.1408 4278190335
-0.011800236 0.033350762 0.1408 4278190335
-0.011469985 0.033350762 0.1408 4278190335
-0.011147647 0.033374447 0.1409 4278190335
-0.01082484 0.033398136 0.141 4278190335
-0.010494119 0.033398136 0.141 4278190335
-0.010170606 0.033421818 0.14109999 4278190335
-0.0098535987 0.033469193 0.14129999 4278190335
-0.0095221754 0.033469193 0.14129999 4278190335
-0.0092362836 0.033634998 0.14199999 4278190335
-0.0089408373 0.033777121 0.1426 4278190335
-0.0086546475 0.033966612 0.1434 4278190335
-0.0080932733 0.034440346 0.1454 4278190335
-0.0078108809 0.034700897 0.14649999 4278190335
-0.007523329 0.034961451 0.1476 4278190335
-0.0072208913 0.035174631 0.1485 4278190335
-0.0068910923 0.03526938 0.1489 4278190335
-0.0065418431 0.03526938 0.1489 4278190335
-0.0061842753 0.035222005 0.1487 4278190335
-0.0058315704 0.035198316 0.1486 4278190335
-0.0054719551 0.035127256 0.14829999 4278190335
-0.0051137474 0.0350562 0.148 4278190335
-0.0047569466 0.034985136 0.1477 4278190335
-0.0044045392 0.034937765 0.14749999 4278190335
-0.0040530702 0.034890391 0.14729999 4278190335
-0.0037000226 0.034819331 0.147 4278190335
-0.0033529471 0.034795646 0.1469 4278190335
-0.0030063405 0.034771957 0.1468 4278190335
-0.0026602033 0.034748271 0.14669999 4278190335
-0.0023129564 0.034700897 0.14649999 4278190335
-0.0019666476 0.034653526 0.1463 4278190335
-0.0016223867 0.03462984 0.1462 4278190335
-0.0012785948 0.034606151 0.1461 4278190335
-0.00093335035 0.034511406 0.14569999 4278190335
-0.00058998237 0.034416661 0.1453 4278190335
-0.00024831924 0.034298226 0.14479999 4278190335
9.099835e-05 0.034179792 0.1443 4278190335
0.00042767281 0.034037676 0.1437 4278190335
0.0010933444 0.033777121 0.1426 4278190335
0.0014228107 0.033658687 0.14209999 4278190335
0.0017511675 0.033563942 0.1417 4278190335
0.002079118 0.033492882 0.14139999 4278190335
0.0024090712 0.033469193 0.14129999 4278190335
0.0027346762 0.033398136 0.141 4278190335
0.0030653963 0.033398136 0.141 4278190335
0.0033961162 0.033398136 0.141 4278190335
0.0037294787 0.033421818 0.14109999 4278190335
0.0040604332 0.033421818 0.14109999 4278190335
0.0043913876 0.033421818 0.14109999 4278190335
0.0047223419 0.033421818 0.14109999 4278190335
0.0050532967 0.033421818 0.14109999 4278190335
0.005384251 0.033421818 0.14109999 4278190335
0.0057152049 0.033421818 0.14109999 4278190335
0.0063680755 0.033374447 0.1409 4278190335
0.006693807 0.033350762 0.1408 4278190335
0.0070190686 0.033327073 0.1407 4278190335
0.0073490851 0.033327073 0.1407 4278190335
0.0076845591 0.033350762 0.1408 4278190335
0.0080205016 0.033374447 0.1409 4278190335
0.0083628409 0.033421818 0.14109999 4278190335
0.0086999564 0.033445507 0.14119999 4278190335
0.0090311449 0.033445507 0.14119999 4278190335
0.0093557034 0.033421818 0.14109999 4278190335
0.0096797943 0.033398136 0.141 4278190335
0.041698597 0.034440346 0.1454 4278190335
0.042039637 0.034440346 0.1454 4278190335
0.042409822 0.034464031 0.14549999 4278190335
0.042780478 0.034487717 0.14559999 4278190335
0.04312199 0.034487717 0.14559999 4278190335
0.043523204 0.034535091 0.14579999 4278190335
0.043865182 0.034535091 0.14579999 4278190335
0.04423748 0.034558777 0.1459 4278190335
0.044549137 0.034535091 0.14579999 4278190335
0.044860326 0.034511406 0.14569999 4278190335
0.047184311 0.033729747 0.1424 4278190335
0.047509547 0.033256013 0.14039999 4278190335
0.047668494 0.033137582 0.1399 4278190335
0.047756482 0.032971777 0.1392 4278190335
0.047875721 0.032829653 0.13859999 4278190335
0.048096482 0.032758597 0.1383 4278190335
0.048350845 0.032711223 0.1381 4278190335
0.048569024 0.032640163 0.13779999 4278190335
0.048856754 0.032616474 0.13769999 4278190335
0.048965447 0.032474358 0.1371 4278190335
0.049071323 0.032332238 0.1365 4278190335
0.049210563 0.032213803 0.13599999 4278190335
0.049518667 0.032000624 0.13509999 4278190335
0.049724888 0.031929564 0.1348 4278190335
0.049855452 0.031811129 0.13429999 4278190335
0.050058387 0.031740073 0.134 4278190335
0.050335098 0.031716384 0.1339 4278190335
0.05061134 0.031692699 0.1338 4278190335
0.050887108 0.031669009 0.1337 4278190335
0.051162411 0.031645324 0.1336 4278190335
0.051475774 0.031645324 0.1336 4278190335
0.051789135 0.031645324 0.1336 4278190335
0.052102499 0.031645324 0.1336 4278190335
0.052415863 0.031645324 0.1336 4278190335
0.052729227 0.031645324 0.1336 4278190335
0.053042591 0.031645324 0.1336 4278190335
0.053316016 0.031621639 0.13349999 4278190335
0.053669315 0.031645324 0.1336 4278190335
0.054023083 0.031669009 0.1337 4278190335
0.054377325 0.031692699 0.1338 4278190335
0.054691158 0.031692699 0.1338 4278190335
0.055087205 0.031740073 0.134 4278190335
0.055442847 0.031763755 0.13409999 4278190335
0.055840541 0.031811129 0.13429999 4278190335
0.05619736 0.031834818 0.1344 4278190335
0.056596696 0.031882189 0.1346 4278190335
0.056912407 0.031882189 0.1346 4278190335
0.057228114 0.031882189 0.1346 4278190335
0.057586577 0.031905878 0.1347 4278190335
0.057945505 0.031929564 0.1348 4278190335
0.058304906 0.031953253 0.1349 4278190335
0.058621317 0.031953253 0.1349 4278190335
0.059025105 0.032000624 0.13509999 4278190335
0.059385911 0.032024309 0.13519999 4278190335
0.059703026 0.032024309 0.13519999 4278190335
0.060108934 0.032071684 0.1354 4278190335
0.060471147 0.032095369 0.1355 4278190335
0.060788967 0.032095369 0.1355 4278190335
0.061106786 0.032095369 0.1355 4278190335
0.061424606 0.032095369 0.1355 4278190335
0.061742425 0.032095369 0.1355 4278190335
0.062060244 0.032095369 0.1355 4278190335
0.062332027 0.032071684 0.1354 4278190335
0.06260334 0.032047998 0.1353 4278190335
0.062874183 0.032024309 0.13519999 4278190335
-0.027547712 0.034374729 0.1437 4278190335
-0.027191723 0.034350805 0.1436 4278190335
-0.026817502 0.034302961 0.1434 4278190335
-0.026462685 0.034279041 0.1433 4278190335
-0.026126571 0.034279041 0.1433 4278190335
-0.025790457 0.034279041 0.1433 4278190335
-0.025454341 0.034279041 0.1433 4278190335
-0.025100697 0.034255121 0.1432 4278190335
-0.024782112 0.034279041 0.1433 4278190335
-0.024463056 0.034302961 0.1434 4278190335
-0.024126707 0.034302961 0.1434 4278190335
-0.023773769 0.034279041 0.1433 4278190335
-0.02345401 0.034302961 0.1434 4278190335
-0.023117661 0.034302961 0.1434 4278190335
-0.022765426 0.034279041 0.1433 4278190335
-0.022413658 0.034255121 0.1432 4278190335
-0.022077778 0.034255121 0.1432 4278190335
-0.021726714 0.034231197 0.14309999 4278190335
-0.02137612 0.034207277 0.14299999 4278190335
-0.021011284 0.034159437 0.1428 4278190335
-0.020661863 0.034135517 0.1427 4278190335
-0.020312909 0.034111593 0.1426 4278190335
-0.019964427 0.034087673 0.1425 4278190335
-0.019602636 0.034039829 0.14229999 4278190335
-0.019255325 0.034015909 0.14219999 4278190335
-0.018908486 0.033991985 0.14209999 4278190335
-0.018562114 0.033968065 0.14199999 4278190335
-0.018216213 0.033944145 0.1419 4278190335
-0.017858176 0.033896305 0.1417 4278190335
-0.017525814 0.033896305 0.1417 4278190335
-0.017181318 0.033872381 0.1416 4278190335
-0.016825393 0.033824537 0.14139999 4278190335
-0.01648207 0.033800617 0.14129999 4278190335
-0.016139215 0.033776697 0.14119999 4278190335
-0.015796831 0.033752773 0.14109999 4278190335
-0.015443956 0.033704933 0.1409 4278190335
-0.015102744 0.033681013 0.1408 4278190335
-0.014772493 0.033681013 0.1408 4278190335
-0.014431985 0.033657093 0.1407 4278190335
-0.014101969 0.033657093 0.1407 4278190335
-0.013771952 0.033657093 0.1407 4278190335
-0.013441937 0.033657093 0.1407 4278190335
-0.013102601 0.033633169 0.1406 4278190335
-0.01277282 0.033633169 0.1406 4278190335
-0.012443038 0.033633169 0.1406 4278190335
-0.012113256 0.033633169 0.1406 4278190335
-0.011791855 0.033657093 0.1407 4278190335
-0.011469985 0.033681013 0.1408 4278190335
-0.011139736 0.033681013 0.1408 4278190335
-0.010809485 0.033681013 0.1408 4278190335
-0.010486676 0.033704933 0.1409 4278190335
-0.010163399 0.033728857 0.141 4278190335
-0.0098466249 0.033776697 0.14119999 4278190335
-0.0095221754 0.033800617 0.14129999 4278190335
-0.0092297802 0.033944145 0.1419 4278190335
-0.0089345677 0.034087673 0.1425 4278190335
-0.0086425766 0.034255121 0.1432 4278190335
-0.0080654416 0.034661781 0.14489999 4278190335
-0.0077788914 0.034900993 0.1459 4278190335
-0.0074876491 0.035140205 0.1469 4278190335
-0.0071917162 0.035379417 0.1479 4278190335
-0.0068586958 0.035451178 0.14819999 4278190335
-0.006515482 0.035475098 0.14829999 4278190335
-0.0061634807 0.035451178 0.14819999 4278190335
-0.0058080242 0.035403337 0.148 4278190335
-0.0054498166 0.035331573 0.1477 4278190335
-0.0050964709 0.035283729 0.14749999 4278190335
-0.0047440636 0.035235886 0.14729999 4278190335
-0.0043896087 0.035164125 0.147 4278190335
-0.0040420643 0.035140205 0.1469 4278190335
-0.0036899543 0.035068437 0.14659999 4278190335
-0.0033438171 0.035044517 0.14649999 4278190335
-0.002996101 0.034996677 0.1463 4278190335
-0.0026511366 0.034972757 0.1462 4278190335
-0.0023066413 0.034948833 0.1461 4278190335
-0.0019639591 0.034948833 0.1461 4278190335
-0.0016190575 0.034900993 0.1459 4278190335
-0.001274219 0.034829225 0.14559999 4278190335
-0.00093206915 0.034805305 0.14549999 4278190335
-0.00058835815 0.034661781 0.14489999 4278190335
0.0033937076 0.033704933 0.1409 4278190335
0.0037241927 0.033704933 0.1409 4278190335
